# .PCD v0.7 - Point Cloud Data file format
VERSION 0.7
FIELDS x y z rgb
SIZE 4 4 4 4
TYPE F F F F
COUNT 1 1 1 1
WIDTH 636
HEIGHT 1
VIEWPOINT 0 0 0 1 0 0 0
POINTS 636
DATA ascii
-0.053540539 -0.093428038 0.28812453 1.6762506e-38
-0.053079803 -0.09267205 0.28814343 1.6209701e-38
-0.053967733 -0.092727512 0.28808719 1.5840197e-38
-0.054170057 -0.092256598 0.28804663 1.5010442e-38
-0.055076644 -0.092425413 0.2880134 1.5101201e-38
-0.056151636 -0.092212573 0.28811777 1.5193754e-38
-0.056752663 -0.091933765 0.28825015 1.5009723e-38
-0.057351436 -0.091651723 0.28838429 1.473314e-38
-0.057993982 -0.09128999 0.2885505 1.5471053e-38
-0.058640584 -0.090937421 0.28871208 1.7222758e-38
-0.059278529 -0.090575144 0.2888782 1.8514199e-38
-0.059994839 -0.090546221 0.28916052 1.8514541e-38
-0.060653314 -0.090172939 0.28927198 1.8698932e-38
-0.061385382 -0.090119831 0.28952724 1.8700003e-38
-0.062026981 -0.089787193 0.28961727 1.8976586e-38
-0.063044906 -0.089203529 0.28971061 1.9160257e-38
-0.064029418 -0.088687085 0.28980276 1.9436481e-38
-0.064708367 -0.08830519 0.28984722 1.9436486e-38
-0.065502673 -0.088617116 0.2901926 1.9804565e-38
-0.066497654 -0.088074699 0.29027209 1.980456e-38
-0.067485616 -0.087531626 0.29036307 1.9345367e-38
-0.068439886 -0.08704783 0.29046756 1.9344646e-38
-0.069391027 -0.086562864 0.29057536 1.9620872e-38
-0.070816018 -0.086552426 0.29097691 1.9528319e-38
-0.071419612 -0.086277217 0.29106736 1.971271e-38
-0.072039358 -0.085946433 0.29117322 1.980383e-38
-0.072964467 -0.085449584 0.29133809 1.9897104e-38
-0.073853627 -0.084996529 0.29154497 1.9897104e-38
-0.074743599 -0.084516965 0.29176864 2.0081497e-38
-0.080342181 -0.082302749 0.29368365 2.0172256e-38
-0.081163757 -0.081882514 0.29400557 2.0172256e-38
-0.082243823 -0.081333019 0.29446462 2.054067e-38
-0.083054826 -0.080912121 0.294808 2.0631064e-38
-0.083865181 -0.080491491 0.2951515 2.0446672e-38
-0.053046301 -0.091866978 0.28808254 1.5840921e-38
-0.069931448 -0.08591228 0.29055756 1.9804904e-38
-0.075506382 -0.083733514 0.29195598 2.0265172e-38
-0.07636562 -0.083275355 0.29222429 2.0080781e-38
-0.077493593 -0.082692541 0.29260099 2.0264452e-38
-0.078332409 -0.082232691 0.2929067 2.0264089e-38
-0.079278283 -0.082117267 0.29326829 2.0263733e-38
-0.084544033 -0.079752609 0.29546699 2.016973e-38
-0.08534155 -0.079349607 0.29583347 2.0170088e-38
-0.086403273 -0.078801669 0.29632437 2.0261924e-38
-0.087195665 -0.078383163 0.29669723 2.0445595e-38
-0.087841049 -0.078424312 0.29700851 2.0445236e-38
-0.088025749 -0.077821784 0.29711205 2.0353042e-38
-0.088765636 -0.077562355 0.29747137 2.0352683e-38
-0.089547083 -0.077167518 0.29787251 2.0444877e-38
-0.090584509 -0.076635689 0.29841512 2.0353042e-38
-0.091353424 -0.076240182 0.29884037 2.016973e-38
-0.091870546 -0.0759812 0.29912171 2.0077894e-38
-0.092367776 -0.075708516 0.29942241 2.0170088e-38
-0.09286496 -0.075450055 0.29973584 1.9986417e-38
-0.093611948 -0.075062089 0.3002055 2.0078612e-38
-0.094353847 -0.074687436 0.30070022 2.0170088e-38
-0.09495075 -0.074242041 0.30113223 2.0170088e-38
-0.095910154 -0.073503651 0.30185607 2.0354118e-38
-0.096607909 -0.073121905 0.30239508 2.0354477e-38
-0.097074218 -0.072867945 0.30275187 2.0354477e-38
-0.097540751 -0.072613962 0.30310735 2.0538868e-38
-0.098027639 -0.072379336 0.30348077 1.9986417e-38
-0.098755054 -0.072028145 0.30405021 2.0079698e-38
-0.099479251 -0.071676761 0.30462807 2.0173338e-38
-0.10041158 -0.071190126 0.30539581 2.0265534e-38
-0.099929892 -0.07142438 0.30500591 2.0265534e-38
-0.10089281 -0.070955843 0.30578864 2.0173698e-38
-0.10184817 -0.070486821 0.30659023 1.9989657e-38
-0.10134844 -0.070702963 0.30615816 2.0174048e-38
-0.10477657 -0.068282336 0.30958337 1.989819e-38
-0.10541656 -0.067936547 0.31028333 1.9713799e-38
-0.10604476 -0.067591824 0.31099311 1.9805644e-38
-0.052800663 -0.090878159 0.28796613 1.6670306e-38
-0.1019257 -0.069350719 0.30682641 2.0541392e-38
-0.10262633 -0.069010191 0.30748227 2.0357009e-38
-0.10330015 -0.068661101 0.3081395 2.0173695e-38
-0.10397208 -0.068313107 0.30880105 1.9805993e-38
-0.10645705 -0.066645145 0.31154764 1.9989329e-38
-0.10712107 -0.066314816 0.3122969 1.9989329e-38
-0.10765928 -0.065675154 0.3129504 1.9989687e-38
-0.10844261 -0.065653116 0.31381255 1.9713821e-38
-0.1087607 -0.065128706 0.31424281 2.00826e-38
-0.10933268 -0.064508364 0.31499466 1.9714867e-38
-0.10997874 -0.064185373 0.31581685 2.0083285e-38
-0.11061373 -0.063863032 0.31665212 1.9806695e-38
-0.11109471 -0.063234292 0.31740773 1.9714139e-38
-0.11138868 -0.062709384 0.31786323 2.0082559e-38
-0.11201367 -0.06239425 0.3187556 1.9989657e-38
-0.1126392 -0.062078435 0.3196508 1.925284e-38
-0.11346807 -0.061662007 0.32088426 1.8976253e-38
-0.11303729 -0.061865032 0.32023421 1.925284e-38
-0.11369342 -0.060830459 0.32128125 1.9346464e-38
-0.11412342 -0.060625669 0.32193673 1.9161717e-38
-0.11471121 -0.060311843 0.32287273 1.9161358e-38
-0.11531369 -0.060009632 0.32389435 1.9068102e-38
-0.11605096 -0.058874033 0.32533413 1.7684088e-38
-0.11659751 -0.058583155 0.32644561 1.6946878e-38
-0.11697647 -0.058395498 0.32724583 1.685576e-38
-0.11757433 -0.05739164 0.32866606 1.7132358e-38
-0.12010963 -0.054610707 0.33489063 1.861036e-38
-0.12055179 -0.054395001 0.33557346 1.7871765e-38
-0.052619781 -0.089823641 0.28777185 1.7500776e-38
-0.1154021 -0.058862723 0.3241902 1.9068459e-38
-0.11706116 -0.057249129 0.32759467 1.6669946e-38
-0.11754677 -0.056656588 0.32875964 1.6393362e-38
-0.11810287 -0.05639023 0.33013061 1.6763211e-38
-0.11833394 -0.055893064 0.33088386 1.6949034e-38
-0.11857615 -0.055391625 0.33163071 1.6947954e-38
-0.11887639 -0.05519633 0.33239302 1.7133788e-38
-0.1196814 -0.054812346 0.33410066 1.8701484e-38
-0.11937787 -0.054584678 0.3335132 1.83327e-38
-0.12099285 -0.053394303 0.33609328 1.326456e-38
-0.12163725 -0.05301914 0.33679363 5.3458934e-39
-0.12213201 -0.052767567 0.3372516 5.3458934e-39
-0.12295298 -0.052385442 0.33788013 5.2533418e-39
-0.12380109 -0.051989194 0.33838549 4.6086941e-39
-0.038818624 -0.08869262 0.30275512 1.5195552e-38
-0.039350808 -0.088578187 0.30220988 1.5103356e-38
-0.039896853 -0.088408887 0.30157059 1.5196275e-38
-0.043781336 -0.088408239 0.29709756 1.4919691e-38
-0.045384761 -0.08852464 0.295205 1.4550908e-38
-0.046968929 -0.088681072 0.29342237 1.501081e-38
-0.047430988 -0.088538967 0.29273584 1.4918614e-38
-0.048722669 -0.08898741 0.29069847 1.4827498e-38
-0.050589029 -0.089312114 0.2886076 1.4827503e-38
-0.12405767 -0.050755952 0.33827901 4.7023303e-39
-0.036299553 -0.087846011 0.30415612 1.5748372e-38
-0.036927558 -0.087642871 0.30358121 1.565653e-38
-0.037531104 -0.087868989 0.30320665 1.5656528e-38
-0.038459454 -0.088004299 0.30261573 1.5472134e-38
-0.039790805 -0.087671265 0.3011494 1.5472136e-38
-0.040577058 -0.087911636 0.30049819 1.5288114e-38
-0.041487727 -0.087826848 0.29940671 1.5563984e-38
-0.042042241 -0.087555289 0.2985664 1.5195201e-38
-0.042666145 -0.088081785 0.29822183 1.5011886e-38
-0.04320325 -0.087814242 0.29737127 1.4919691e-38
-0.044003725 -0.087878153 0.29641911 1.5104083e-38
-0.044803042 -0.087938413 0.2954711 1.5011886e-38
-0.045890845 -0.088311851 0.29444724 1.4735299e-38
-0.046443801 -0.088069364 0.29373395 1.4827142e-38
-0.047630455 -0.088042445 0.29209802 1.4918613e-38
-0.048292875 -0.08821512 0.29105958 1.4734223e-38
-0.049426392 -0.088387482 0.28933319 1.4826779e-38
-0.050275881 -0.088586085 0.28862625 1.4919337e-38
-0.12371416 -0.049794503 0.33789954 4.5175775e-39
-0.036152493 -0.086694263 0.3038989 1.6024956e-38
-0.040890139 -0.087235488 0.2996681 1.5379963e-38
-0.044231784 -0.0873456 0.29574686 1.5288473e-38
-0.12299726 -0.048920151 0.33733502 4.5164957e-39
-0.12354736 -0.04916548 0.33768827 4.6086941e-39
-0.03606287 -0.086080305 0.3038165 1.6024956e-38
-0.12278327 -0.04802401 0.33705056 4.7008883e-39
-0.036217965 -0.085290276 0.30337521 1.5656884e-38
-0.12230366 -0.047229733 0.33669111 4.5172131e-39
-0.12211101 -0.046317942 0.33660471 4.3331806e-39
-0.12172565 -0.045537423 0.33642483 4.2413437e-39
-0.12127472 -0.044615202 0.33619028 4.1491481e-39
-0.12080668 -0.043700822 0.33596808 4.0573154e-39
-0.12037623 -0.042790916 0.33581641 4.1487949e-39
-0.033984397 -0.078860216 0.3055447 1.7316051e-38
-0.034010869 -0.078596868 0.30524269 1.7407891e-38
-0.11989497 -0.041892562 0.33564669 4.1484404e-39
-0.033932883 -0.077559933 0.30551499 1.7592635e-38
-0.11943297 -0.040996771 0.33550847 4.1484432e-39
-0.033879023 -0.076846205 0.30525053 1.7501143e-38
-0.11868316 -0.039667018 0.3352327 5.3480752e-39
-0.11893927 -0.040106978 0.33533883 4.1488075e-39
-0.03529783 -0.076105617 0.29996669 1.7409296e-38
-0.11838518 -0.038921118 0.33526692 5.6246607e-39
-0.11840249 -0.039236728 0.3351112 4.1488075e-39
-0.035200812 -0.075422935 0.29966748 1.7317454e-38
-0.11813745 -0.038196895 0.33542106 5.7172137e-39
-0.11832795 -0.038327377 0.33561653 5.4402708e-39
-0.11824104 -0.03842172 0.33538184 5.2558796e-39
-0.11781449 -0.038431849 0.33473277 4.3331946e-39
-0.035111807 -0.074737526 0.29937395 1.7501129e-38
-0.11712936 -0.037711293 0.33413029 4.6094242e-39
-0.034997266 -0.073685437 0.2988905 1.7869193e-38
-0.11669802 -0.036795761 0.33403391 4.6097843e-39
-0.034885898 -0.072633535 0.29840839 1.7961025e-38
-0.11593828 -0.03615886 0.33304358 4.7023415e-39
-0.1164204 -0.036183387 0.33400279 4.2420836e-39
-0.034823909 -0.071940601 0.29813296 1.7961025e-38
-0.11560976 -0.035220198 0.33305255 4.6105018e-39
-0.034804683 -0.070827223 0.29761216 1.777736e-38
-0.11526372 -0.034146201 0.33301139 4.5175873e-39
-0.11531336 -0.034696013 0.3326368 4.6097815e-39
-0.034825642 -0.069708787 0.29713193 1.805432e-38
-0.11495713 -0.033340063 0.33262399 4.6097829e-39
-0.03432063 -0.069067672 0.297362 1.805432e-38
-0.11471792 -0.032389805 0.33226889 4.6094214e-39
-0.033512875 -0.068155751 0.29777554 1.8146512e-38
-0.11449163 -0.031559613 0.33162078 4.5175803e-39
-0.032887802 -0.067115381 0.29802835 1.8423097e-38
-0.11402643 -0.031381335 0.32955158 5.069675e-39
-0.11429354 -0.030917183 0.33104154 4.8852838e-39
-0.033247929 -0.06634517 0.29757178 1.8423087e-38
-0.033468433 -0.06569168 0.29731208 1.8423085e-38
-0.033117209 -0.065318733 0.29752997 1.8423085e-38
-0.11328712 -0.030051043 0.32704023 4.8852838e-39
-0.033158638 -0.064146444 0.29740873 1.8698962e-38
-0.11305673 -0.029320013 0.32642952 4.8856439e-39
-0.032326087 -0.063340798 0.29811504 1.8791882e-38
-0.031156939 -0.062518232 0.29918432 1.8791163e-38
-0.031776924 -0.062704414 0.29860905 1.8975551e-38
-0.030318528 -0.062152676 0.30011865 1.8883356e-38
-0.11280964 -0.028521305 0.32604834 4.7941657e-39
-0.11308064 -0.028598057 0.32645208 5.1618707e-39
-0.030069394 -0.061513953 0.30060235 1.8606769e-38
-0.11256602 -0.027604098 0.32578272 4.7941643e-39
-0.030169969 -0.060548887 0.30069622 1.8423098e-38
-0.112308 -0.027007235 0.32557672 4.7941671e-39
-0.11191683 -0.026447639 0.32519391 4.5172257e-39
-0.030285645 -0.059275821 0.30084908 1.8514943e-38
-0.11141209 -0.026005702 0.32469603 4.701617e-39
-0.030696645 -0.058287885 0.30048987 1.8330906e-38
-0.11102059 -0.025551626 0.32434326 4.7938126e-39
-0.030885136 -0.057206903 0.30039743 1.8145785e-38
-0.11054279 -0.024097258 0.3241998 4.8860082e-39
-0.030928392 -0.055977143 0.30043402 1.8054304e-38
-0.031166371 -0.056310657 0.30002317 1.8054303e-38
-0.11019179 -0.023162104 0.32419974 5.1618707e-39
-0.030998725 -0.054983228 0.3003661 1.7777727e-38
-0.10877381 -0.02240508 0.32346851 5.3462619e-39
-0.10949877 -0.022773733 0.32385987 5.069675e-39
-0.030854588 -0.054122664 0.30066672 1.7685534e-38
-0.030619588 -0.053323466 0.30114424 1.7500793e-38
-0.10845655 -0.021809038 0.32348064 5.0707512e-39
-0.030607149 -0.052688297 0.3011381 1.750044e-38
-0.030543819 -0.052083895 0.30121565 1.7591916e-38
-0.10799649 -0.021323211 0.32333702 5.2540663e-39
-0.10728842 -0.021251271 0.32276794 5.2540663e-39
-0.030566351 -0.051397655 0.30099916 1.7500077e-38
-0.10661756 -0.020630887 0.32249644 5.2540635e-39
-0.030357473 -0.050464768 0.30130789 1.731639e-38
-0.10579441 -0.019502314 0.3224304 5.2540635e-39
-0.030109381 -0.049192909 0.30147117 1.7039449e-38
-0.10534995 -0.018571012 0.32264692 5.0696722e-39
-0.029957691 -0.048208941 0.30102724 1.6854702e-38
-0.10495181 -0.017590484 0.32294995 3.3172392e-39
-0.10392541 -0.016618021 0.32256368 3.2239618e-39
-0.10316468 -0.016359743 0.32168013 3.0395705e-39
-0.030940501 -0.046194829 0.29676637 1.6578468e-38
-0.10250759 -0.015566724 0.32152638 2.8555352e-39
-0.030276831 -0.045090754 0.29700777 1.6394082e-38
-0.10221432 -0.015060498 0.31921694 3.222873e-39
-0.10186474 -0.014784165 0.32135662 2.8548135e-39
-0.029838288 -0.044255767 0.29699296 1.6301531e-38
-0.10143118 -0.014115056 0.32009619 2.9470063e-39
-0.10124569 -0.014055559 0.3205764 2.7626165e-39
-0.10117359 -0.013604366 0.32145569 2.7618976e-39
-0.10150605 -0.014195947 0.32143295 2.7626179e-39
-0.029947747 -0.043343045 0.2960369 1.6210057e-38
-0.029902559 -0.042501654 0.29540062 1.6024944e-38
-0.029445272 -0.041623406 0.29520556 1.5841274e-38
-0.028749917 -0.041119296 0.29549026 1.5565766e-38
-0.10208308 -0.012156488 0.31219438 2.9473623e-39
-0.10214238 -0.011587008 0.31223455 2.762971e-39
-0.028615922 -0.039874502 0.29453138 1.537959e-38
-0.028955143 -0.040087946 0.29440418 1.5473218e-38
-0.10231854 -0.010824897 0.31164739 2.762971e-39
-0.028556636 -0.038832314 0.29385167 1.51952e-38
-0.029013632 -0.039272677 0.29376781 1.5379587e-38
-0.10250451 -0.010015879 0.31118762 2.6711355e-39
-0.028013168 -0.038091853 0.29382491 1.4642751e-38
-0.027450562 -0.037746966 0.29406556 1.4366164e-38
-0.10262738 -0.0089581404 0.31068444 2.3959864e-39
-0.028002219 -0.037326872 0.29326308 1.4550915e-38
-0.10235633 -0.0080683706 0.31026447 1.8431769e-39
-0.027717533 -0.036592077 0.29296547 1.4459434e-38
-0.10200419 -0.0071784947 0.30990583 1.8442573e-39
-0.027829221 -0.035701793 0.29214442 1.3906625e-38
-0.10172729 -0.0062947064 0.30957222 2.1208498e-39
-0.027372658 -0.034893278 0.29193062 1.3722236e-38
-0.10143587 -0.0054117595 0.30924958 8.3912358e-39
-0.025994701 -0.033220612 0.29189336 1.3444943e-38
-0.02637149 -0.033414487 0.29169142 1.372153e-38
-0.10120137 -0.0048260991 0.30903682 8.1171769e-39
-0.10097402 -0.0042441078 0.30881366 8.4866783e-39
-0.025130713 -0.032693796 0.29232979 1.2708103e-38
-0.10075211 -0.0036659495 0.30858967 8.8551049e-39
-0.024640035 -0.032163966 0.29240033 1.2431886e-38
-0.10038701 -0.0028090163 0.30831307 7.4707313e-39
-0.023817597 -0.031196909 0.29268828 1.2247138e-38
-0.10007606 -0.001928931 0.30809519 7.558957e-39
-0.023206621 -0.030012969 0.29297748 1.1878364e-38
-0.023606975 -0.030130748 0.29245204 1.2062756e-38
-0.09958756 -0.00077503273 0.30785194 1.1246767e-38
-0.0997812 -0.00137329 0.30792162 1.1245688e-38
-0.02626144 -0.029682813 0.28794575 1.2338971e-38
-0.026785007 -0.029594883 0.28707007 1.2246775e-38
-0.023472553 -0.029649645 0.29246029 1.1510308e-38
-0.023975473 -0.029264303 0.29138431 1.1694329e-38
-0.024557326 -0.029415224 0.29036802 1.1786522e-38
-0.025221594 -0.029842669 0.28971016 1.2246775e-38
-0.025712255 -0.029814154 0.28892002 1.2431167e-38
-0.099334702 -0.00019853562 0.30773565 1.0971625e-38
-0.099580564 0.00072539132 0.30844161 1.1248221e-38
-0.02673441 -0.028845843 0.28610474 1.1785447e-38
-0.09960068 0.0015561613 0.30904344 1.0419188e-38
-0.026673745 -0.02810704 0.2851325 1.1693254e-38
-0.098969124 0.0021646335 0.308624 9.86601e-39
-0.098958634 0.0027218722 0.30908397 9.6808957e-39
-0.026595375 -0.027389936 0.28414664 1.1693254e-38
-0.098549977 0.0041527585 0.30988443 7.8366229e-39
-0.098692171 0.0033345332 0.30914333 8.2054055e-39
-0.098248474 0.0047457577 0.30974963 7.9277368e-39
-0.025868991 -0.026113465 0.2830019 1.1324472e-38
-0.097926222 0.0057195686 0.31002712 6.9150198e-39
-0.025458725 -0.025130942 0.28186929 1.1047885e-38
-0.097505309 0.0065222662 0.30961233 6.1760198e-39
-0.025033284 -0.024182187 0.28071955 1.0955689e-38
-0.097259767 0.0077034137 0.30996832 5.899786e-39
-0.09743882 0.0073588025 0.3102361 5.9912656e-39
-0.024386084 -0.02364487 0.28055328 1.0956408e-38
-0.097094908 0.0085964995 0.31011373 3.3193972e-39
-0.097210921 0.0087627117 0.31054381 3.4115928e-39
-0.023767618 -0.023018906 0.28018212 1.1140796e-38
-0.097061813 0.0097457804 0.31051674 2.5839986e-39
-0.023138536 -0.022435958 0.27991596 1.1048958e-38
-0.096713841 0.0105433 0.30976778 2.0311863e-39
-0.022498446 -0.021446772 0.27900061 1.1693604e-38
-0.096681155 0.011336447 0.30993345 1.9389907e-39
-0.096683659 0.012154769 0.31007051 1.9389907e-39
-0.096918188 0.01359152 0.31062803 1.8478741e-39
-0.096758939 0.012879045 0.31032172 1.9389907e-39
-0.019385194 -0.020044358 0.28033063 1.1784718e-38
-0.09691114 0.014215157 0.31055498 1.8478741e-39
-0.01815564 -0.019094087 0.28030095 1.17858e-38
-0.018528517 -0.019029431 0.27976298 1.224605e-38
-0.019057527 -0.019399535 0.27971357 1.2338248e-38
-0.096884459 0.014841964 0.31048623 1.8478741e-39
-0.096793063 0.015614025 0.31022632 2.1226603e-39
-0.018156467 -0.018496802 0.27940157 1.224641e-38
-0.0968742 0.016442008 0.31025368 2.1226631e-39
-0.019662051 -0.017785024 0.27648616 1.3167635e-38
-0.018098848 -0.017987123 0.27869764 1.2799576e-38
-0.096653156 0.017197814 0.30962351 2.1230232e-39
-0.019591257 -0.016786456 0.27507532 1.3995952e-38
-0.096662343 0.018102059 0.3093231 2.123026e-39
-0.019297922 -0.016127435 0.27448353 1.4180696e-38
-0.097158484 0.019090382 0.30967551 2.0311863e-39
-0.097007513 0.019650262 0.30914047 2.2155748e-39
-0.018741075 -0.015498468 0.27426437 1.4182491e-38
-0.096922599 0.02030977 0.30866128 2.1233792e-39
-0.0175361 -0.014404953 0.27421898 1.4643825e-38
-0.096802548 0.021245705 0.30799991 2.1226603e-39
-0.016941169 -0.013848367 0.27420276 1.4736021e-38
-0.096459642 0.022089869 0.3076342 2.1226603e-39
-0.016636588 -0.012928344 0.27353626 1.528847e-38
-0.09620586 0.022926858 0.30718318 2.0311835e-39
-0.016284483 -0.012083541 0.27306581 1.5657609e-38
-0.095882632 0.023742987 0.30673018 2.0311835e-39
-0.015152278 -0.010935228 0.2731961 1.6579562e-38
-0.015734514 -0.011489733 0.27308506 1.5934196e-38
-0.096021116 0.024525756 0.30689874 2.1226603e-39
-0.095949307 0.025214951 0.30714312 2.3070515e-39
-0.014586137 -0.010355649 0.27320108 1.6302975e-38
-0.095668793 0.025781911 0.30721548 2.3070515e-39
-0.014286204 -0.0094897617 0.27279904 1.6394447e-38
-0.095139205 0.026237322 0.30673096 2.1226603e-39
-0.014070624 -0.0085227685 0.27229956 1.648629e-38
-0.012827086 -0.0074869902 0.27268478 1.6762156e-38
-0.013655301 -0.0077807112 0.27214929 1.6669608e-38
-0.013153087 -0.0068391096 0.27194551 1.6669959e-38
-0.09322276 0.030695343 0.3091071 2.5825594e-39
-0.093181327 0.030759936 0.30974722 2.5825594e-39
-0.012327604 -0.005972466 0.27209261 1.6485923e-38
-0.092309967 0.031612623 0.31140596 2.3981682e-39
-0.011903866 -0.0052055521 0.27196532 1.67618e-38
-0.092010103 0.032484613 0.31093419 2.490361e-39
-0.011885309 -0.0042271884 0.27139649 1.6762506e-38
-0.091740206 0.033307761 0.31040809 2.3070487e-39
-0.091657437 0.033478551 0.31109419 2.3992444e-39
-0.012637588 -0.003199293 0.27006391 1.6855051e-38
-0.091453321 0.034182534 0.30999592 2.3996059e-39
-0.012646588 -0.0023229879 0.26953292 1.6947955e-38
-0.091185533 0.035029791 0.30943781 2.3077732e-39
-0.012211707 -0.0011183002 0.26928362 1.7408947e-38
-0.090942606 0.035965044 0.3090896 2.2152175e-39
-0.011719382 -0.00052831275 0.26946124 1.7593341e-38
-0.090747558 0.036904275 0.30883038 2.3070515e-39
-0.011193263 0.0002799987 0.26958528 1.777773e-38
-0.090638541 0.037690952 0.30771118 2.3077704e-39
-0.090674192 0.037463553 0.30834678 2.3077704e-39
-0.011449145 0.0014483833 0.26886371 1.786992e-38
-0.090548195 0.038466852 0.30714938 2.4921617e-39
-0.010971606 0.0022242726 0.26907015 1.8146496e-38
-0.010812729 0.0027430425 0.26906702 1.8330884e-38
-0.090454027 0.039435677 0.30676815 2.5836384e-39
-0.010786409 0.0035889333 0.26886278 1.8238691e-38
-0.089951798 0.039783664 0.30309168 2.8580645e-39
-0.090336904 0.039866697 0.30527121 2.5829196e-39
-0.010069728 0.0044151675 0.26941174 1.8423448e-38
-0.089656167 0.040209718 0.30230898 2.6747523e-39
-0.090202048 0.040280271 0.30453196 2.5825594e-39
-0.010321273 0.0054449788 0.26894912 1.8423444e-38
-0.089616306 0.041261431 0.30216008 2.6747551e-39
-0.0096673714 0.0068037235 0.2695007 1.8516e-38
-0.01024157 0.0063986154 0.26891422 1.8699672e-38
-0.089200594 0.041869387 0.30122218 2.6747523e-39
-0.0091337245 0.0073759658 0.27001494 1.8792231e-38
-0.0089945393 0.0079300189 0.27014622 1.8976978e-38
-0.088944316 0.042687569 0.30083528 2.4910799e-39
-0.0087927561 0.0084874611 0.27034867 1.8976607e-38
-0.0087237824 0.0090548806 0.27041423 1.897696e-38
-0.088682823 0.043542534 0.30057481 2.49144e-39
-0.0084248232 0.0096408073 0.27075347 1.9068455e-38
-0.008360358 0.010210192 0.27082339 1.9437237e-38
-0.087872207 0.044129059 0.29960608 2.4914428e-39
-0.088369519 0.044025186 0.30027932 2.5836356e-39
-0.0083546434 0.011061207 0.27081934 1.9805292e-38
-0.0085989283 0.010767487 0.27055562 2.0449929e-38
-0.008593305 0.011339162 0.27055004 2.054212e-38
-0.087540738 0.044917915 0.29944828 2.49144e-39
-0.008350634 0.011912775 0.27081686 2.0172995e-38
-0.0082845176 0.012486686 0.2708841 2.0357023e-38
-0.08718016 0.045845393 0.29938853 2.4914414e-39
-0.0082101924 0.013348217 0.27094388 2.0816925e-38
-0.0084584793 0.013643382 0.27067858 2.1183907e-38
-0.086748108 0.046741791 0.2993381 2.4914428e-39
-0.0083781062 0.014403878 0.27076787 2.1092433e-38
-0.08588855 0.047353238 0.29860869 2.5836412e-39
-0.086360462 0.047281154 0.29909652 2.4914428e-39
-0.0081967218 0.01506011 0.27093211 2.1184987e-38
-0.085037537 0.048588242 0.29853153 2.5832825e-39
-0.0082956972 0.01618248 0.27083141 2.1644522e-38
-0.084297761 0.049158283 0.29818407 2.5836412e-39
-0.0083179921 0.017314618 0.27078769 2.2197678e-38
-0.083508164 0.049928822 0.29786432 2.583637e-39
-0.008326456 0.018167522 0.27079377 2.2381714e-38
-0.0088730911 0.01836225 0.27033955 2.275012e-38
-0.082731791 0.050663099 0.29747388 2.5836356e-39
-0.0086214291 0.019799555 0.27066553 2.2565733e-38
-0.081938252 0.051204212 0.29673091 2.6754711e-39
-0.082329318 0.051205069 0.29743895 2.5836356e-39
-0.0086777667 0.020637358 0.27071023 2.2842694e-38
-0.081188112 0.051671524 0.29578459 2.8594981e-39
-0.081301264 0.051848792 0.29636681 2.7673024e-39
-0.0087419022 0.021755487 0.27082375 2.2842339e-38
-0.080415033 0.051708192 0.29255801 2.9513392e-39
-0.080530994 0.05220006 0.29468998 2.7669493e-39
-0.080787182 0.052205458 0.29572961 2.8594981e-39
-0.0087548997 0.022890149 0.27102125 2.2750504e-38
-0.07997667 0.05290981 0.29418856 2.5836356e-39
-0.0087655019 0.023849662 0.27122626 2.284342e-38
-0.0095559079 0.024750311 0.27092317 2.2844873e-38
-0.079397209 0.052644268 0.2905404 2.7683814e-39
-0.010603412 0.026001552 0.27047876 2.3030001e-38
-0.078912139 0.053444456 0.29037815 2.9516909e-39
-0.010480405 0.026788456 0.27093548 2.3030356e-38
-0.01051762 0.027376464 0.27120703 2.2846689e-38
-0.078220323 0.054290403 0.28975034 2.9516909e-39
-0.0098684514 0.028422311 0.27235821 2.29378e-38
-0.077052101 0.054671943 0.28758356 3.3197475e-39
-0.077199049 0.055208307 0.28875056 3.1353563e-39
-0.077737615 0.054706175 0.28916842 3.1353591e-39
-0.010381395 0.029294746 0.27239743 2.2845227e-38
-0.07598722 0.054469939 0.28559268 1.2988376e-38
-0.076493241 0.054870009 0.28670579 4.2377452e-39
-0.010785293 0.030280951 0.27262726 2.2662627e-38
-0.011759399 0.031502325 0.27237043 2.3031056e-38
-0.075274408 0.055128392 0.28502357 1.3359678e-38
-0.012351197 0.032665692 0.27250466 2.284847e-38
-0.074407704 0.055721737 0.28426319 1.2248643e-38
-0.012355767 0.0333139 0.27298999 2.2847712e-38
-0.011604527 0.034262899 0.27466515 2.3121778e-38
-0.011589707 0.03361414 0.27417022 2.293811e-38
-0.010129041 0.034840424 0.27695814 2.2843746e-38
-0.01092811 0.034485418 0.27567711 2.3029582e-38
-0.073354632 0.05663402 0.28355232 1.2238888e-38
-0.073705956 0.056996427 0.28415272 1.2425815e-38
-0.073981762 0.05628312 0.28406331 1.2612374e-38
-0.010311403 0.035519373 0.27719334 2.2289519e-38
-0.010388353 0.035241224 0.27692094 2.2934866e-38
-0.010651642 0.035639413 0.27688381 2.2566105e-38
-0.072898529 0.057166059 0.2833471 1.2238164e-38
-0.010814922 0.036065497 0.27698252 2.2104785e-38
-0.011142999 0.03648955 0.27689442 2.2104437e-38
-0.06924849 0.056780573 0.27994078 1.2236364e-38
-0.069843106 0.057254046 0.28068218 1.1777185e-38
-0.070444107 0.05752347 0.28128919 1.1686426e-38
-0.071344793 0.057415053 0.28199214 1.1777902e-38
-0.071899541 0.057651732 0.2826046 1.1870098e-38
-0.072392374 0.057625681 0.28312764 1.1870461e-38
-0.011361746 0.036945555 0.27693677 2.1460167e-38
-0.011941107 0.03704742 0.27635109 2.2289175e-38
-0.012256425 0.03762421 0.27636895 2.1736727e-38
-0.012648053 0.038007904 0.27616432 2.2106571e-38
-0.013029363 0.03839276 0.27595273 2.2474646e-38
-0.067923978 0.05676828 0.27885079 1.3064676e-38
-0.013013024 0.039069276 0.27642193 2.2105863e-38
-0.013397937 0.039766017 0.27639198 2.2289526e-38
-0.013837114 0.039746121 0.27580169 2.2566488e-38
-0.066431507 0.057346389 0.27798569 1.3618917e-38
-0.014582545 0.040426634 0.27520385 2.2935269e-38
-0.065839052 0.058155086 0.27812237 1.1961215e-38
-0.015209923 0.041198559 0.27475893 2.265939e-38
-0.015753392 0.04171164 0.27425122 2.2290983e-38
-0.065331213 0.058418017 0.27793369 1.2052333e-38
-0.016561551 0.042637929 0.27360043 2.2750879e-38
-0.016600069 0.043254908 0.2738688 2.2566491e-38
-0.064484142 0.059940051 0.27843365 1.2052333e-38
-0.064946122 0.059009753 0.27806348 1.2052333e-38
-0.01668741 0.043835897 0.27405694 2.2841646e-38
-0.017048707 0.044497032 0.27388105 2.2750532e-38
-0.063709766 0.059858859 0.2779606 1.2053409e-38
-0.016879931 0.045289572 0.27457279 2.3117881e-38
-0.05957051 0.06037496 0.27634493 1.3619635e-38
-0.061348036 0.061034113 0.27767214 1.2514383e-38
-0.061772592 0.061314233 0.27809426 1.2329992e-38
-0.062812939 0.060266748 0.27782691 1.2145603e-38
-0.016864667 0.046930287 0.27550691 2.2381403e-38
-0.058652055 0.06077398 0.27622277 1.4819236e-38
-0.016781863 0.04776914 0.27614969 2.1552378e-38
-0.017114576 0.048035569 0.27558964 2.2105552e-38
-0.056962833 0.061329477 0.27563885 1.3802947e-38
-0.057786286 0.061022185 0.27594802 1.3804023e-38
-0.017225996 0.048908751 0.27567521 2.2197382e-38
-0.017686097 0.04937477 0.274867 1.6840334e-38
-0.056214642 0.061622996 0.27521774 1.5463176e-38
-0.017650474 0.049988318 0.27495593 1.5732568e-38
-0.055515502 0.06259317 0.27594489 1.4264996e-38
-0.017997624 0.051057722 0.27429077 1.6483767e-38
-0.018235875 0.051259115 0.27383214 1.6576321e-38
-0.054455597 0.064308293 0.27686065 1.3989132e-38
-0.054967657 0.063490584 0.27644148 1.3803664e-38
-0.017970582 0.052162968 0.27402684 1.666886e-38
-0.054077417 0.064854838 0.27691883 1.3803664e-38
-0.018180955 0.052656144 0.27348992 1.6578101e-38
-0.018497992 0.053103551 0.27269125 1.6670295e-38
-0.053567115 0.065799259 0.276997 1.509404e-38
-0.018310307 0.054108739 0.27247959 1.6670295e-38
-0.053030077 0.06667503 0.27702332 1.6292943e-38
-0.017992388 0.054914229 0.27241603 1.6577025e-38
-0.052630365 0.06751173 0.27681398 1.4634141e-38
-0.017621001 0.055429541 0.27255511 1.6577025e-38
-0.052271433 0.068258621 0.27642536 1.4541222e-38
-0.017823692 0.056185178 0.27092573 1.6761054e-38
-0.051994622 0.068734072 0.27614731 1.4909279e-38
-0.051678337 0.069217026 0.2758418 1.4541577e-38
-0.017859239 0.0576584 0.2694332 1.7221668e-38
-0.051462863 0.069839217 0.27568334 1.454122e-38
-0.017970989 0.058141284 0.26879454 1.722311e-38
-0.051159069 0.070840642 0.27559203 1.4449027e-38
-0.017496817 0.059240706 0.26848975 1.8051782e-38
-0.05091431 0.071849957 0.27548835 1.454122e-38
-0.017180385 0.060082689 0.26839527 1.989532e-38
-0.050543051 0.072857119 0.27546385 1.5370264e-38
-0.01658801 0.060976706 0.26876283 2.3493164e-38
-0.016959937 0.060665146 0.26845074 2.2110206e-38
-0.049861103 0.073172607 0.2742689 1.481529e-38
-0.04917891 0.073338337 0.27360919 1.6752803e-38
-0.016456213 0.061879214 0.26897603 2.3500001e-38
-0.015386812 0.062725671 0.27077144 2.3032203e-38
-0.048613645 0.073062614 0.26914966 1.4998961e-38
-0.048818447 0.073345125 0.27060834 1.5275543e-38
-0.049043622 0.073480099 0.2719368 1.4356112e-38
-0.04899865 0.073808715 0.272888 1.4724532e-38
-0.01663225 0.063453361 0.26899508 1.9352714e-38
-0.015320547 0.063433379 0.27098519 2.2387944e-38
-0.017211452 0.063946933 0.26863703 1.9904073e-38
-0.047899012 0.073049441 0.26763082 1.5092949e-38
-0.047199853 0.073190272 0.26765746 1.4476498e-38
-0.047899734 0.072768889 0.26775256 1.4476498e-38
-0.021204764 0.068177782 0.26899725 2.0815807e-38
-0.045911249 0.073545374 0.26645476 1.4659803e-38
-0.046698183 0.073422804 0.26783434 1.4109513e-38
-0.047237329 0.073109455 0.26782271 1.3740733e-38
-0.021400217 0.06890817 0.26926136 2.044703e-38
-0.044133499 0.07362745 0.26541618 1.4384662e-38
-0.042185213 0.075824708 0.26613298 2.2380986e-38
-0.045111846 0.073834494 0.26609462 1.4384302e-38
-0.021528855 0.069898844 0.26923561 2.0171882e-38
-0.043596968 0.074015133 0.26555786 1.420099e-38
-0.041962065 0.07715337 0.26671454 1.6015608e-38
-0.021511069 0.070691951 0.26921871 1.9619793e-38
-0.022268726 0.071659066 0.26791564 1.9527599e-38
-0.022297772 0.072479926 0.26781824 1.9434691e-38
-0.022276884 0.073270112 0.26750934 1.9251028e-38
-0.041599933 0.077546142 0.26635864 1.4201709e-38
-0.041301608 0.078686863 0.26630867 1.4293907e-38
-0.021700509 0.074317843 0.26816261 1.8882253e-38
-0.041304059 0.079345509 0.26636028 1.4385028e-38
-0.021390961 0.075537384 0.26828513 1.8697514e-38
-0.041311327 0.080271691 0.26629287 1.4200995e-38
-0.019683804 0.076847091 0.26894993 1.8605309e-38
-0.020752186 0.076477662 0.26851684 1.8605313e-38
-0.040290274 0.081792012 0.26643881 1.4017685e-38
-0.040667228 0.08127939 0.26640993 1.4109516e-38
-0.039360195 0.082935058 0.26659647 1.4478298e-38
-0.03977171 0.082190149 0.26652005 1.4018046e-38
-0.019336591 0.078250058 0.26863292 1.8420192e-38
-0.020088516 0.078463845 0.26827207 1.878861e-38
-0.039556943 0.084453203 0.26732084 1.4293907e-38
-0.039493561 0.083731875 0.26703325 1.4386103e-38
-0.019879367 0.079317264 0.26814342 1.8789327e-38
-0.039239615 0.085010007 0.26650971 1.4477577e-38
-0.019929154 0.08031977 0.26787651 1.8881522e-38
-0.020100351 0.080658175 0.2676695 1.8881167e-38
-0.039149277 0.0859394 0.26617295 1.4477218e-38
-0.019676397 0.081237346 0.26766655 1.8788618e-38
-0.020376734 0.081372395 0.26709768 1.9065204e-38
-0.037956119 0.086653695 0.26565617 1.4386103e-38
-0.038959749 0.087226234 0.26536021 1.4293907e-38
-0.020500239 0.082409047 0.26652929 1.9431823e-38
-0.037550986 0.087291285 0.26537317 1.4570494e-38
-0.02054113 0.083230026 0.26633245 1.9708048e-38
-0.020514429 0.083823912 0.26629838 1.9894227e-38
-0.036005512 0.087755896 0.26495954 1.4658368e-38
-0.020567363 0.084340416 0.26613107 2.0722903e-38
-0.021214819 0.085122302 0.26513949 2.3397633e-38
-0.021266328 0.085698754 0.26521745 2.3124649e-38
-0.035825137 0.090189166 0.26377094 1.4936394e-38
-0.02127183 0.086359419 0.26545268 2.349492e-38
-0.035612419 0.090550795 0.26348817 1.5212984e-38
-0.021756705 0.08750274 0.26521069 7.084249e-39
-0.022242039 0.087678134 0.2646715 7.9154376e-39
-0.023271054 0.088481404 0.26390809 3.9611471e-39
-0.03275343 0.09093079 0.26296446 1.2078323e-38
-0.034360621 0.091383293 0.26277733 1.2262365e-38
-0.035173517 0.091101676 0.26300585 1.5027153e-38
-0.022735203 0.088749975 0.26459548 3.9633093e-39
-0.023832731 0.08905647 0.26370597 3.3168609e-39
-0.024579095 0.08888676 0.26329523 3.4076188e-39
-0.025448279 0.089030989 0.26313117 3.0388418e-39
-0.025994129 0.089066364 0.26298729 3.0381244e-39
-0.026533481 0.089431241 0.26289031 3.1288823e-39
-0.027453694 0.089644097 0.26283178 3.4047503e-39
-0.028466122 0.090070784 0.2627582 3.4058307e-39
-0.029322788 0.09014412 0.26278496 4.234504e-39
-0.029876664 0.09045019 0.26276374 4.2359487e-39
-0.030752847 0.090809174 0.26276806 9.8620317e-39
-0.031621069 0.090871915 0.26282996 1.2259471e-38
-0.032872245 0.091536745 0.26258901 1.2170525e-38
-0.033426344 0.091542244 0.26263332 1.2170525e-38
