# .PCD v0.7 - Point Cloud Data file format
VERSION 0.7
FIELDS x y z rgb
SIZE 4 4 4 4
TYPE F F F F
COUNT 1 1 1 1
WIDTH 95
HEIGHT 1
VIEWPOINT 0 0 0 1 0 0 0
POINTS 95
DATA ascii
-0.022609653 0.061547074 0.26284662 2.3128255e-38
-0.044136528 0.075113654 0.26397148 1.420099e-38
-0.041458827 0.077593423 0.26347598 1.4660885e-38
-0.041923441 0.08087229 0.26384649 1.4016964e-38
-0.033668689 0.089508586 0.2627919 1.1611914e-38
-0.03005176 0.089502774 0.26234668 1.087147e-38
-0.026133472 0.088949114 0.26238832 4.2337809e-39
-0.023860585 0.088262111 0.26372153 3.8689514e-39
-0.011521116 0.0039125648 0.26797101 1.8423083e-38
-0.020885618 0.06210687 0.26475075 2.3033923e-38
-0.018645452 0.061764937 0.26639429 2.2387133e-38
-0.056158006 0.064094126 0.26797107 1.3924406e-38
-0.053999025 0.066150554 0.26518491 1.4383942e-38
-0.025836026 0.066771448 0.26590672 2.2659342e-38
-0.023391822 0.066702202 0.2676211 2.2105808e-38
-0.053087518 0.069115013 0.26507136 1.420063e-38
-0.050829437 0.070551462 0.26507714 1.8432568e-38
-0.048880108 0.072691776 0.26592129 2.0088107e-38
-0.040865425 0.081406832 0.26460603 1.4201357e-38
-0.019592525 0.080680221 0.26776275 1.878933e-38
-0.040085625 0.084600933 0.26647121 1.4293907e-38
-0.021660399 0.085658103 0.26468667 1.9250696e-38
-0.035851635 0.088036448 0.26447141 1.410375e-38
-0.023082526 0.088527992 0.26453394 4.4210406e-39
-0.014462368 -0.0060183108 0.27019808 1.6669959e-38
-0.013253709 -0.0023682886 0.2689757 1.7131999e-38
-0.011139453 -0.00016493123 0.26897094 1.7593339e-38
-0.011247909 0.0021013846 0.26870173 1.8054304e-38
-0.010125236 0.0064663244 0.26890275 1.8791866e-38
-0.009608373 0.010159751 0.26949763 1.9897113e-38
-0.0094066411 0.01422985 0.26983446 2.1368298e-38
-0.0095802769 0.018156096 0.26970395 2.2566456e-38
-0.0099759242 0.022030368 0.26970226 2.2935982e-38
-0.010900851 0.025947452 0.27032495 2.2938164e-38
-0.011265553 0.029413404 0.27130023 2.2939224e-38
-0.018137392 0.057368793 0.26900503 1.7314221e-38
-0.056628861 0.061415501 0.26834601 1.0236927e-38
-0.022740334 0.067131616 0.26865849 2.1460449e-38
-0.022482781 0.069908582 0.26883554 1.9987494e-38
-0.021606017 0.074945241 0.26828352 1.8789704e-38
-0.020462818 0.077570356 0.26855433 1.8697139e-38
-0.019636411 0.079117976 0.268471 1.8604939e-38
-0.022199247 -0.017921612 0.27384079 1.3536054e-38
-0.019813346 -0.016108252 0.2738454 1.4272892e-38
-0.018304398 -0.013970781 0.2727752 1.5012246e-38
-0.016282387 -0.011452897 0.27247053 1.6026391e-38
-0.015130263 -0.010113585 0.27230391 1.6394451e-38
-0.011152484 0.030744566 0.27230391 2.2938859e-38
-0.013183629 0.034344215 0.27275804 2.2939211e-38
-0.014907453 0.037912756 0.27326912 2.2845603e-38
-0.016752636 0.042346254 0.27294552 2.2936001e-38
-0.015840326 0.040998805 0.2738038 2.2567571e-38
-0.018060064 0.046170712 0.27298093 2.3118611e-38
-0.018954761 0.050029028 0.27302608 1.7768755e-38
-0.018429147 0.052977081 0.27255985 1.676213e-38
-0.027592052 -0.025105083 0.27911985 1.1324113e-38
-0.026202872 -0.022794425 0.27697006 1.1692531e-38
-0.023457367 -0.020300919 0.27609518 1.2522639e-38
-0.028862674 -0.027362566 0.28118211 1.2061316e-38
-0.054392207 -0.088186733 0.28742728 1.5287386e-38
-0.064047053 -0.084091797 0.2879689 1.7223837e-38
-0.061455205 -0.085219301 0.2872124 1.6485923e-38
-0.057889141 -0.085769348 0.28651586 1.5932389e-38
-0.029321229 -0.030944424 0.28542453 1.2983971e-38
-0.064766191 -0.084433198 0.28838551 1.7222754e-38
-0.049630359 -0.086194783 0.28922799 1.5195193e-38
-0.047103193 -0.085327663 0.29117042 1.5470706e-38
-0.072938085 -0.080462985 0.29101023 1.7315308e-38
-0.069582835 -0.081272252 0.2895937 1.7315662e-38
-0.029726807 -0.034593523 0.28925779 1.3905907e-38
-0.045288723 -0.085429199 0.29310295 1.5287034e-38
-0.043258063 -0.084762096 0.29500383 1.5379588e-38
-0.080980584 -0.076328404 0.29453069 1.7774473e-38
-0.077708662 -0.077179149 0.29296836 1.7867759e-38
-0.075608902 -0.079108328 0.29209346 1.713166e-38
-0.084193811 -0.073514834 0.2958743 1.5563247e-38
-0.031932056 -0.045638036 0.29493693 1.6670668e-38
-0.031333927 -0.041899763 0.2934683 1.6117139e-38
-0.030298185 -0.039014723 0.29254338 1.5379946e-38
-0.042068392 -0.084663801 0.29646799 1.5655812e-38
-0.039237566 -0.081137247 0.29776782 1.6301532e-38
-0.038266521 -0.07803347 0.29720747 1.6855065e-38
-0.085694104 -0.072765268 0.29665548 1.6300443e-38
-0.036817208 -0.073981762 0.29691231 1.7500766e-38
-0.035504326 -0.072749406 0.29771784 1.7776989e-38
-0.089537978 -0.069374919 0.29860941 1.8696074e-38
-0.035107646 -0.069674931 0.2968846 1.7961761e-38
-0.033800218 -0.066066787 0.2966615 1.8423092e-38
-0.031732425 -0.06170325 0.29837403 1.8791523e-38
-0.031770196 -0.058933392 0.29884276 1.8514938e-38
-0.032844309 -0.054206785 0.2973038 1.7962111e-38
-0.032310966 -0.050886355 0.29662868 1.740823e-38
-0.091917679 -0.068552896 0.30034256 1.9160664e-38
-0.093464702 -0.065396711 0.30160207 1.8514947e-38
-0.096224554 -0.061861761 0.30364582 1.8974873e-38
