# .PCD v0.7 - Point Cloud Data file format
VERSION 0.7
FIELDS x y z rgb
SIZE 4 4 4 4
TYPE F F F F
COUNT 1 1 1 1
WIDTH 967
HEIGHT 1
VIEWPOINT 0 0 0 1 0 0 0
POINTS 967
DATA ascii
0.54021865 -0.010129871 -0.20039625 1.833159e-38
0.53941011 -0.010109275 -0.20041803 1.8423786e-38
0.53868866 -0.010170723 -0.20040233 1.8331606e-38
0.53778785 -0.010073421 -0.20045927 1.8423801e-38
0.5370633 -0.010138052 -0.20044221 1.823906e-38
0.53615874 -0.010044678 -0.20049745 1.823906e-38
0.53543109 -0.010112535 -0.20047899 1.8238708e-38
0.53461242 -0.010102438 -0.20049624 1.8054317e-38
0.53397179 -0.010252506 -0.20044023 1.8054317e-38
0.53342009 -0.01048262 -0.2003476 1.7962118e-38
0.53277755 -0.010634643 -0.20029074 1.7777727e-38
0.53222436 -0.010866351 -0.20019741 1.7685531e-38
0.56201667 0.071261883 -0.23504466 1.2170531e-38
0.56157589 0.070800819 -0.23485053 1.2354562e-38
0.56127077 0.070135169 -0.23456492 1.2538953e-38
0.56110245 0.069266044 -0.23418832 1.235348e-38
0.56346494 0.061341524 -0.23069197 1.8792218e-38
0.56460011 0.055425275 -0.22809152 1.4894928e-38
0.56459826 0.054383781 -0.22763692 1.6262789e-38
0.56466842 0.053244404 -0.22713843 1.6536507e-38
0.56640118 0.045701031 -0.22381787 1.0112347e-38
0.56656182 0.044483021 -0.22328354 1.7885592e-38
0.56658363 0.043466322 -0.2228393 1.7332418e-38
0.56653666 0.042550948 -0.22244035 1.6966878e-38
0.56642038 0.04173632 -0.22208646 1.4934994e-38
0.56630564 0.04092342 -0.2217333 1.0048626e-38
0.56626427 0.040013891 -0.22133678 1.7239875e-38
0.56622481 0.03910641 -0.22094113 1.760866e-38
0.56618732 0.038201012 -0.22054632 1.1430474e-38
0.5661518 0.037297655 -0.22015236 1.8160755e-38
0.56597352 0.036591485 -0.21984674 1.6963639e-38
0.56579649 0.035886656 -0.21954168 1.7770019e-38
0.56562072 0.035183106 -0.21923713 1.1039738e-38
0.5654462 0.034480888 -0.21893315 1.4702349e-38
0.56527287 0.03377993 -0.21862967 1.5069309e-38
0.56517404 0.032983672 -0.21828341 1.4792722e-38
0.56522369 0.03199615 -0.2178513 1.4972428e-38
0.56527567 0.031011047 -0.21742018 1.5063182e-38
0.56532991 0.030028351 -0.21699008 1.5429807e-38
0.56523848 0.029239856 -0.21664704 1.5337611e-38
0.56514865 0.028452994 -0.21630467 1.5153223e-38
0.56491178 0.02785887 -0.21604878 1.3777851e-38
0.56467575 0.027265629 -0.21579322 1.4607612e-38
0.56444061 0.026673313 -0.21553805 1.9782811e-38
0.56428123 0.025986945 -0.21524061 1.4883495e-38
0.56412297 0.025301827 -0.21494371 1.4699104e-38
0.56396598 0.024617983 -0.21464731 1.6257065e-38
0.56381017 0.023935433 -0.21435145 1.6623686e-38
0.56358004 0.023348371 -0.21409844 1.6531491e-38
0.56342649 0.022668166 -0.21380354 1.6346731e-38
0.56327415 0.021989211 -0.21350917 1.6347437e-38
0.56304693 0.021405198 -0.21325742 1.6347437e-38
0.56289679 0.020728597 -0.21296401 1.6622945e-38
0.5627479 0.020053232 -0.21267112 1.6622942e-38
0.56252354 0.019472254 -0.2124206 1.6622942e-38
0.5623768 0.018799236 -0.21212867 1.6622942e-38
0.5622313 0.018127451 -0.21183725 1.6530748e-38
0.56200981 0.017549504 -0.21158798 1.5705305e-38
0.56186652 0.016880024 -0.21129751 1.5520916e-38
0.56172442 0.016211793 -0.21100757 1.0202403e-38
0.56158346 0.015544819 -0.21071813 3.046825e-39
0.56152153 0.014787221 -0.21038789 2.6780425e-39
0.56138313 0.014122908 -0.21009955 1.1025697e-40
0.56116766 0.013551292 -0.20985289 1.9145941e-41
0.56103146 0.012889264 -0.20956549 1.8785807e-41
0.5608964 0.012228447 -0.20927861 1.8785807e-41
0.56068379 0.01165979 -0.20903316 1.9148744e-41
0.56047195 0.01109201 -0.20878807 1.878861e-41
0.56026101 0.01052507 -0.20854333 1.9873215e-41
0.56005085 0.0099589806 -0.20829892 1.9515884e-41
0.55984151 0.0093937721 -0.2080549 1.8435483e-41
0.55971253 0.0087393867 -0.20777065 1.9513081e-41
0.55950499 0.0081760334 -0.20752737 1.9513081e-41
0.55921829 0.0077031809 -0.20732485 1.8792814e-41
0.55901217 0.0071413703 -0.2070822 1.8072546e-41
0.55888718 0.0064911037 -0.20679966 1.8072546e-41
0.55868286 0.0059311423 -0.20655777 1.8792814e-41
0.55855995 0.0052831289 -0.20627615 1.9513081e-41
0.55835742 0.0047250297 -0.20603502 1.9513081e-41
0.55815566 0.0041677691 -0.20579425 1.8792814e-41
0.55803585 0.0035229886 -0.20551395 1.8792814e-41
0.55783582 0.0029675772 -0.20527394 1.8792814e-41
0.55771816 0.0023250165 -0.20499457 1.8792814e-41
0.55751991 0.0017714491 -0.20475531 1.8792814e-41
0.55740434 0.0011310698 -0.20447683 1.8792814e-41
0.55728984 0.00049189944 -0.20419887 2.0231947e-41
0.55725873 -0.00023337221 -0.20388201 2.0592081e-41
0.55698198 -0.00069582066 -0.2036837 2.0231947e-41
0.55678815 -0.0012447052 -0.20344637 1.9871814e-41
0.55651236 -0.0017060639 -0.2032485 2.0231947e-41
0.55623704 -0.002166973 -0.20305082 1.8547586e-39
0.55596215 -0.0026274323 -0.20285332 4.1596494e-39
0.5556044 -0.0030012641 -0.20269492 1.6586848e-38
0.55533016 -0.0034610122 -0.20249771 1.8609286e-38
0.55505633 -0.0039203106 -0.20230065 1.851709e-38
0.55469912 -0.0042935372 -0.20214248 1.8884777e-38
0.55434203 -0.0046666865 -0.20198432 1.8976253e-38
0.553985 -0.0050397539 -0.20182618 1.8976253e-38
0.55362797 -0.0054127495 -0.20166805 1.9161001e-38
0.55327106 -0.0057856729 -0.20150997 1.9253196e-38
0.5529142 -0.0061585265 -0.20135188 1.9161001e-38
0.55255747 -0.0065313084 -0.20119381 1.9068802e-38
0.55211574 -0.0068196608 -0.20107391 1.9437941e-38
0.55167371 -0.0071083079 -0.20095389 1.9253549e-38
0.55123138 -0.0073972587 -0.20083372 1.9253547e-38
0.55078876 -0.0076865084 -0.20071341 1.9253547e-38
0.55026019 -0.0078924196 -0.2006308 1.9436856e-38
0.54973096 -0.0080990214 -0.20054789 1.9621247e-38
0.54928714 -0.0083895409 -0.20042701 1.9436856e-38
0.54875678 -0.0085972808 -0.20034359 1.9713443e-38
0.54822576 -0.0088056847 -0.20025988 1.9436856e-38
0.54760754 -0.0089320559 -0.20021333 1.9345016e-38
0.54707509 -0.0091419881 -0.20012894 1.9621603e-38
0.54654199 -0.0093525974 -0.20004426 1.9437212e-38
0.54592115 -0.0094817169 -0.1999965 1.934466e-38
0.54529923 -0.0096118608 -0.1999483 1.9068074e-38
0.54467642 -0.0097430656 -0.19989963 1.897696e-38
0.54396492 -0.009793655 -0.1998875 1.8884767e-38
0.54325211 -0.0098456694 -0.19987477 1.860818e-38
0.54253793 -0.0098990742 -0.19986142 1.8424508e-38
0.54182237 -0.0099539096 -0.19984747 1.8516703e-38
0.54110551 -0.01001016 -0.1998329 1.8423783e-38
0.54029876 -0.0099870637 -0.19985433 1.8423786e-38
0.53957903 -0.010046324 -0.19983846 1.8608177e-38
0.53885788 -0.010106998 -0.19982198 1.8515278e-38
0.53804636 -0.01008888 -0.19984126 1.8515278e-38
0.53723317 -0.010072565 -0.19985977 1.8423448e-38
0.53632891 -0.009978205 -0.19991374 1.8423448e-38
0.53560162 -0.010045268 -0.19989449 1.8423097e-38
0.53478324 -0.010034308 -0.19991069 1.814651e-38
0.53414291 -0.010183708 -0.19985411 1.8054314e-38
0.53350157 -0.010334154 -0.19979708 1.7962473e-38
0.53285915 -0.01048567 -0.19973959 1.7778082e-38
0.53212535 -0.010559528 -0.19971739 1.7685531e-38
0.56187314 0.071731709 -0.23454237 1.2170171e-38
0.56149954 0.071167484 -0.23430257 1.2354562e-38
0.56112659 0.070603907 -0.23406303 1.2354562e-38
0.56095791 0.069733918 -0.23368736 1.2444957e-38
0.56352502 0.061496407 -0.23006992 1.8700038e-38
0.56452233 0.055777941 -0.2275698 1.5443789e-38
0.5645203 0.054735549 -0.22711667 1.6262795e-38
0.56466001 0.053494703 -0.22657523 1.5801456e-38
0.56609458 0.047366861 -0.22389056 1.3322608e-38
0.56639296 0.045945257 -0.2232682 9.9337165e-39
0.56655359 0.044726331 -0.22273591 1.659126e-38
0.56657541 0.043708943 -0.2222932 1.7881999e-38
0.56652844 0.042792983 -0.22189555 1.6782131e-38
0.56648344 0.041879088 -0.22149876 1.6688143e-38
0.56636894 0.04106589 -0.22114673 9.4968842e-39
0.56632775 0.040155958 -0.22075158 1.7055841e-38
0.56628847 0.039248075 -0.2203573 1.71502e-38
0.56625122 0.038342267 -0.21996386 1.3921918e-38
0.56614369 0.037536398 -0.21961486 1.6964374e-38
0.56603777 0.036732189 -0.21926655 1.7607213e-38
0.56578839 0.03612465 -0.21900578 1.3147641e-38
0.56561261 0.035420746 -0.21870205 1.2778858e-38
0.56543803 0.034718152 -0.21839885 1.4791302e-38
0.56533784 0.033919904 -0.21805301 1.4697642e-38
0.56523919 0.033123355 -0.21770787 1.4605447e-38
0.56521559 0.032231882 -0.21732038 1.4971349e-38
0.56534117 0.031149724 -0.21684785 1.5154299e-38
0.5653218 0.030262718 -0.21646221 1.5337611e-38
0.56523043 0.02947375 -0.21612021 1.5429807e-38
0.5651406 0.028686423 -0.2157789 1.5521283e-38
0.56490374 0.028092042 -0.21552354 1.5429088e-38
0.5646677 0.027498549 -0.21526855 1.5521283e-38
0.56450725 0.026810702 -0.21497145 1.589079e-38
0.56427318 0.026219243 -0.2147173 1.5982267e-38
0.56411493 0.025533766 -0.21442117 1.5890072e-38
0.56403315 0.024754867 -0.21408333 1.5888983e-38
0.56380218 0.024166645 -0.2138305 1.6255604e-38
0.56364757 0.023484984 -0.21353595 1.6255604e-38
0.56349421 0.02280461 -0.21324192 1.625596e-38
0.56334203 0.022125473 -0.21294841 1.6347436e-38
0.563115 0.021541392 -0.21269727 1.6347436e-38
0.56296504 0.020864617 -0.21240473 1.643963e-38
0.56273985 0.020282501 -0.2121544 1.6622942e-38
0.56259215 0.019608054 -0.21186282 1.6622942e-38
0.56244564 0.018934846 -0.21157175 1.6530748e-38
0.56222332 0.018355751 -0.21132265 1.579714e-38
0.56207895 0.017684873 -0.21103254 1.1027469e-38
0.56193584 0.017015219 -0.21074294 1.0750882e-38
0.56179386 0.016346838 -0.21045384 4.2392445e-39
0.5617308 0.015587536 -0.21012411 1.0289693e-39
0.56159139 0.014921819 -0.20983611 8.44578e-40
0.56145316 0.014257313 -0.20954864 1.8783005e-41
0.56123793 0.013685631 -0.20930257 1.8783005e-41
0.56110185 0.013023436 -0.20901604 1.116989e-40
0.56088841 0.012453666 -0.20877078 1.9143138e-41
0.56075454 0.011793751 -0.20848519 1.9148744e-41
0.56054294 0.011225889 -0.20824069 1.878861e-41
0.56033212 0.010658888 -0.20799656 1.8792814e-41
0.56012213 0.010092736 -0.20775276 1.9515884e-41
0.55991298 0.0095274625 -0.20750934 1.8435483e-41
0.55978423 0.0088729076 -0.20722595 1.8792814e-41
0.55957681 0.0083094966 -0.20698327 1.8792814e-41
0.55929029 0.0078367135 -0.20678112 1.9513081e-41
0.55908436 0.0072748209 -0.20653906 1.8072546e-41
0.55887926 0.0067137745 -0.20629735 1.843268e-41
0.55875534 0.0060643842 -0.20601608 1.8792814e-41
0.55855203 0.0055052056 -0.20577514 1.9513081e-41
0.55843031 0.0048580258 -0.20549478 1.843268e-41
0.55830967 0.0042120712 -0.20521492 1.843268e-41
0.5581091 0.003655764 -0.20497516 1.8792814e-41
0.55790925 0.0031002958 -0.20473573 1.8792814e-41
0.55779171 0.0024575701 -0.20445721 1.843268e-41
0.55759364 0.0019039438 -0.20421854 1.8792814e-41
0.55747825 0.0012634026 -0.2039409 1.9513081e-41
0.557446 0.00053651258 -0.20362455 2.0231947e-41
0.55733305 -0.00010146584 -0.20334798 2.0592081e-41
0.55705643 -0.00056384737 -0.20315005 1.9871814e-41
0.55686277 -0.0011128067 -0.20291328 1.9151546e-41
0.55666995 -0.001660948 -0.20267686 1.9871814e-41
0.55631202 -0.0020349722 -0.20251845 1.8547614e-39
0.55603731 -0.0024953813 -0.20232131 1.6585769e-38
0.55576301 -0.0029553405 -0.20212433 1.6862356e-38
0.55548906 -0.0034148316 -0.20192754 1.8701117e-38
0.55513197 -0.0037879774 -0.20176944 1.8701117e-38
0.55485874 -0.0042467848 -0.20157291 1.8976972e-38
0.55450201 -0.0046195891 -0.20141494 1.8976975e-38
0.55414528 -0.0049923165 -0.20125699 1.8976975e-38
0.55378866 -0.0053649722 -0.20109905 1.9069171e-38
0.55334759 -0.0056525371 -0.20097928 1.9437953e-38
0.55299091 -0.0060252314 -0.2008213 1.9345758e-38
0.55254948 -0.0063132243 -0.20070131 1.9253196e-38
0.55219275 -0.0066859564 -0.2005433 1.9437938e-38
0.55175084 -0.0069743386 -0.20042312 1.9437938e-38
0.55130869 -0.0072630174 -0.20030281 1.9437941e-38
0.55086625 -0.0075520012 -0.20018236 1.9253549e-38
0.55042356 -0.0078412797 -0.20006177 1.9436856e-38
0.54989463 -0.0080473013 -0.19997856 1.9713799e-38
0.5493651 -0.0082540112 -0.19989505 1.9713799e-38
0.54883492 -0.0084613757 -0.19981126 1.9621247e-38
0.54830408 -0.0086694052 -0.19972716 1.9436856e-38
0.54777259 -0.0088781258 -0.19964276 1.9437212e-38
0.54724044 -0.0090875048 -0.19955806 1.96216e-38
0.54662073 -0.0092150792 -0.19951014 1.96216e-38
0.54600006 -0.0093437191 -0.19946176 1.9345016e-38
0.54546559 -0.009555487 -0.19937602 1.9160625e-38
0.54484308 -0.0096860053 -0.1993268 1.9069153e-38
0.54413193 -0.0097358432 -0.19931388 1.9069158e-38
0.54341942 -0.0097870864 -0.19930035 1.8884767e-38
0.5427056 -0.0098397201 -0.19928622 1.8701095e-38
0.5419904 -0.0098937824 -0.19927146 1.8516703e-38
0.54127377 -0.0099492408 -0.19925611 1.8423786e-38
0.54055589 -0.010006127 -0.19924012 1.8607098e-38
0.53974795 -0.0099837733 -0.19925983 1.8975881e-38
0.53902709 -0.010043656 -0.19924255 1.8791139e-38
0.53821594 -0.010024676 -0.19926079 1.8698944e-38
0.53740305 -0.010007481 -0.19927827 1.8514199e-38
0.53649914 -0.0099121341 -0.19933096 1.869859e-38
0.53577214 -0.0099784238 -0.1993109 1.8514925e-38
0.53495413 -0.009966583 -0.19932605 1.8146145e-38
0.5343141 -0.010115296 -0.19926894 1.805395e-38
0.53358299 -0.010185882 -0.19924702 1.8053947e-38
0.53294075 -0.010336908 -0.19918887 1.8053947e-38
0.53202635 -0.010252476 -0.19923684 1.7962121e-38
0.5618645 0.071996011 -0.23394819 1.235348e-38
0.56142336 0.07153447 -0.23375413 1.2629348e-38
0.56105018 0.070970528 -0.23351486 1.2537153e-38
0.56081343 0.070202298 -0.23318541 1.2537153e-38
0.5635711 0.060595434 -0.22899152 1.9251391e-38
0.56437528 0.056231871 -0.22709218 1.5626751e-38
0.5643729 0.055188414 -0.22664045 1.6170246e-38
0.56615674 0.047512464 -0.22329426 1.5171212e-38
0.56638479 0.046189576 -0.22271854 1.0493374e-38
0.56640393 0.045168664 -0.2222762 1.1792054e-38
0.56649631 0.044050928 -0.22179098 1.3451575e-38
0.56659144 0.04293602 -0.22130695 1.7148037e-38
0.56654662 0.042021744 -0.22091155 1.7150198e-38
0.56650382 0.041109513 -0.22051699 1.014333e-38
0.56639129 0.040297903 -0.22016686 1.7056923e-38
0.56628036 0.039487943 -0.21981743 1.641443e-38
0.56624311 0.038581565 -0.21942529 1.6320803e-38
0.56620783 0.037677247 -0.21903402 1.6412998e-38
0.56602973 0.036970522 -0.21873008 1.8891485e-38
0.56585288 0.036265139 -0.2184267 1.3139719e-38
0.56560457 0.03565846 -0.21816695 1.3785089e-38
0.56542999 0.034955502 -0.21786457 1.451471e-38
0.56532979 0.034156773 -0.21751976 1.451433e-38
0.5653044 0.033262894 -0.21713279 1.4422134e-38
0.56535447 0.032274388 -0.21670389 1.4879154e-38
0.56533319 0.031384747 -0.2163187 1.5154299e-38
0.56531382 0.030497156 -0.21593434 1.5521283e-38
0.56522244 0.029707722 -0.21559338 1.5521283e-38
0.56505847 0.029015847 -0.21529557 1.5704596e-38
0.56489575 0.028325286 -0.2149983 1.5612756e-38
0.56465971 0.02773153 -0.21474387 1.5612756e-38
0.56449926 0.02704332 -0.21444756 1.5797147e-38
0.56434005 0.026356418 -0.2141518 1.5981178e-38
0.56418198 0.025670759 -0.21385653 1.5888983e-38
0.56402516 0.024986401 -0.21356182 1.6072292e-38
0.5638696 0.024303285 -0.21326761 1.625596e-38
0.56371516 0.023621451 -0.21297392 1.625596e-38
0.56356198 0.022940902 -0.21268077 1.6347437e-38
0.56340998 0.022261597 -0.21238813 1.6347436e-38
0.56318313 0.021677468 -0.21213762 1.6347436e-38
0.56303334 0.021000491 -0.21184593 1.6347436e-38
0.56280833 0.020418307 -0.21159622 1.6622942e-38
0.56266081 0.019743694 -0.2113055 1.6530748e-38
0.56243765 0.019163463 -0.21105659 1.6622942e-38
0.56236929 0.01839819 -0.21072561 1.4512898e-38
0.56214821 0.017820098 -0.21047756 8.2771113e-39
0.56208259 0.017057665 -0.21014774 8.1849157e-39
0.56194097 0.016389288 -0.20985959 2.1295533e-39
0.56180054 0.015722131 -0.20957194 3.8576486e-40
0.5616613 0.015056245 -0.20928481 3.8576486e-40
0.56152326 0.014391566 -0.20899817 1.8785807e-41
0.56130821 0.013819818 -0.20875274 1.8785807e-41
0.56109393 0.013248961 -0.20850767 2.0389733e-40
0.56095904 0.012587619 -0.2082224 1.9145941e-41
0.56082535 0.011927535 -0.20793766 1.878861e-41
0.56061393 0.011359605 -0.20769379 1.8428476e-41
0.56040329 0.010792538 -0.20745026 1.8792814e-41
0.56019348 0.010226351 -0.20720708 1.8792814e-41
0.55998451 0.0096609984 -0.20696425 1.843268e-41
0.55977631 0.0090964967 -0.20672177 1.8792814e-41
0.55956894 0.0085328408 -0.20647962 1.8792814e-41
0.55936235 0.0079700593 -0.20623784 1.8792814e-41
0.5591566 0.0074081123 -0.20599639 1.843268e-41
0.55895162 0.006846996 -0.20575529 1.843268e-41
0.55882794 0.0061974465 -0.20547487 1.843268e-41
0.55870545 0.0055490807 -0.20519492 1.8792814e-41
0.55850321 0.0049908604 -0.204955 1.843268e-41
0.55838281 0.0043447446 -0.20467599 1.8792814e-41
0.55818236 0.0037883774 -0.20443681 1.8792814e-41
0.55806404 0.0031444726 -0.20415871 1.8792814e-41
0.55786538 0.0025899564 -0.20392029 1.843268e-41
0.55766749 0.0020362714 -0.20368223 1.9873215e-41
0.55755222 0.0013955864 -0.20340544 2.0231947e-41
0.55752021 0.00066841312 -0.20309016 2.0231947e-41
0.55740738 3.0286299e-05 -0.20281443 2.0231947e-41
0.55721337 -0.00051937078 -0.20257801 1.9871814e-41
0.55702007 -0.0010682016 -0.20234191 1.9151546e-41
0.55674481 -0.0015292835 -0.20214483 1.9871814e-41
0.55646998 -0.0019899046 -0.20194794 1.9462354e-39
0.55611253 -0.0023635025 -0.20178974 1.7322961e-38
0.55583835 -0.0028233903 -0.20159312 1.713857e-38
0.55556464 -0.0032828485 -0.20139666 1.8885856e-38
0.55520767 -0.0036558367 -0.20123868 1.8701464e-38
0.55493462 -0.0041145887 -0.2010425 1.9346108e-38
0.55457801 -0.004487236 -0.20088463 1.9160645e-38
0.55422151 -0.0048598051 -0.20072678 1.925284e-38
0.55386502 -0.0052322992 -0.20056894 1.9160645e-38
0.55342412 -0.0055195992 -0.20044903 1.9252843e-38
0.55306762 -0.0058921338 -0.20029116 1.9252843e-38
0.55271113 -0.0062645925 -0.20013331 1.9437234e-38
0.55226976 -0.0065524084 -0.20001313 1.9253196e-38
0.55182809 -0.0068405448 -0.19989282 1.9437588e-38
0.55147147 -0.0072131646 -0.19973485 1.96209e-38
0.55094379 -0.0074176695 -0.19965176 1.9805291e-38
0.55050123 -0.0077066822 -0.19953103 1.9713093e-38
0.55005836 -0.0079959948 -0.19941017 1.9805639e-38
0.54952914 -0.008202129 -0.19932635 1.9805639e-38
0.54899931 -0.0084089562 -0.19924225 1.9805995e-38
0.54846877 -0.0086164288 -0.19915783 1.9805995e-38
0.54793763 -0.0088245738 -0.19907314 1.9621603e-38
0.54731911 -0.0089506526 -0.19902503 1.9713799e-38
0.54678649 -0.009160324 -0.19893965 1.9621603e-38
0.54616606 -0.0092882803 -0.19889073 1.96216e-38
0.54554468 -0.0094172927 -0.19884133 1.9713796e-38
0.54492235 -0.0095473314 -0.19879149 1.934537e-38
0.54421133 -0.0095965788 -0.19877771 1.9069508e-38
0.54349899 -0.009647212 -0.19876331 1.9069508e-38
0.54287326 -0.0097807627 -0.19871193 1.8976957e-38
0.54207021 -0.0097527467 -0.19873267 1.8608174e-38
0.5414421 -0.0098887393 -0.19868024 1.8608177e-38
0.54063606 -0.0098639093 -0.19869959 1.8607827e-38
0.53991687 -0.009921602 -0.19868213 1.8884414e-38
0.53919643 -0.0099807326 -0.19866405 1.8884058e-38
0.53838557 -0.0099608731 -0.19868125 1.8607471e-38
0.53757298 -0.0099427802 -0.19869769 1.8607827e-38
0.53666931 -0.009846448 -0.1987491 1.8515631e-38
0.53585315 -0.0098321224 -0.19876391 1.8698944e-38
0.53512496 -0.0098992633 -0.19874236 1.8514196e-38
0.5343954 -0.0099678077 -0.19872019 1.8329805e-38
0.53375453 -0.010117116 -0.19866195 1.8329808e-38
0.5330224 -0.010188338 -0.19863862 1.8329808e-38
0.53201771 -0.010024146 -0.19872051 1.8146496e-38
0.56178856 0.072363578 -0.23339923 1.2907007e-38
0.56141472 0.071798809 -0.23316005 1.2906288e-38
0.56104159 0.071234718 -0.23292115 1.2998484e-38
0.56080484 0.070466101 -0.23259252 1.2629701e-38
0.56356269 0.06085116 -0.22841664 1.8885159e-38
0.5642283 0.056686323 -0.22661358 1.6176697e-38
0.56436461 0.055440038 -0.2260747 1.6170599e-38
0.56606448 0.048885118 -0.22322935 1.396904e-38
0.56621903 0.047657948 -0.22269844 1.9238626e-38
0.56630605 0.046533737 -0.22221266 1.1972823e-38
0.56639582 0.045412365 -0.22172806 1.0127132e-38
0.56641728 0.044393212 -0.22128828 1.1141284e-38
0.56644112 0.043376517 -0.22084951 1.769833e-38
0.56646729 0.042362232 -0.22041175 1.7333507e-38
0.56642431 0.041449256 -0.22001842 1.1709574e-38
0.5663116 0.040636983 -0.21966927 1.7517904e-38
0.56627238 0.039727911 -0.21927756 1.6782487e-38
0.56630713 0.038722683 -0.21884355 1.6410477e-38
0.56619978 0.037916042 -0.21849672 1.5580717e-38
0.5660941 0.037111085 -0.2181506 1.8881774e-38
0.56584483 0.036503196 -0.21789104 1.4520126e-38
0.5656693 0.035798732 -0.21758899 1.4151343e-38
0.56549489 0.035095587 -0.21728748 1.4515063e-38
0.56539488 0.034296572 -0.2169438 1.451433e-38
0.56544298 0.033305332 -0.21651559 1.4329939e-38
0.56541991 0.032413285 -0.2161309 1.4879154e-38
0.56539881 0.031523276 -0.21574707 1.5154299e-38
0.56530589 0.030731672 -0.21540646 1.5521283e-38
0.56521451 0.029941773 -0.21506654 1.5521283e-38
0.56512469 0.029153494 -0.2147273 1.5704952e-38
0.56488782 0.028558597 -0.21447305 1.5612756e-38
0.56472629 0.027868921 -0.21417709 1.5612756e-38
0.56456602 0.027180536 -0.21388166 1.5704952e-38
0.56433213 0.026588747 -0.21362868 1.5796784e-38
0.5642491 0.025807617 -0.21329238 1.5796784e-38
0.56409246 0.025123078 -0.21299852 1.6072648e-38
0.56393707 0.024439789 -0.21270518 1.625596e-38
0.56378281 0.023757799 -0.21241237 1.6348156e-38
0.56362981 0.02307705 -0.21212009 1.6347436e-38
0.56340212 0.022491749 -0.21186975 1.6347436e-38
0.56325132 0.021813368 -0.21157843 1.6530748e-38
0.56310171 0.021136221 -0.2112876 1.6530748e-38
0.56287688 0.020553967 -0.21103851 1.6622942e-38
0.56265289 0.019972626 -0.2107898 1.625596e-38
0.56250656 0.019298876 -0.21050036 1.6071571e-38
0.56236142 0.018626405 -0.21021146 1.2036239e-38
0.5622946 0.017862262 -0.20988214 5.3419894e-39
0.56215197 0.017192468 -0.20959434 4.9732068e-39
0.56201059 0.016523907 -0.20930703 4.7687448e-40
0.56187034 0.01585657 -0.20902024 1.8424272e-41
0.56173128 0.015190518 -0.20873398 1.106199e-40
0.56151539 0.014617641 -0.2084887 1.8785807e-41
0.56137848 0.013953873 -0.20820338 1.8785807e-41
0.56116444 0.013382925 -0.20795891 1.117017e-40
0.56102973 0.012721417 -0.20767449 1.9866208e-41
0.56081748 0.012152406 -0.20743081 1.878861e-41
0.56060606 0.011584229 -0.20718746 1.8428476e-41
0.56039542 0.011016917 -0.20694447 1.9148744e-41
0.56018561 0.010450484 -0.20670183 1.9148744e-41
0.56005603 0.0097943731 -0.20641962 1.878861e-41
0.55984801 0.0092298063 -0.20617774 1.9148744e-41
0.55964082 0.0086661102 -0.20593622 1.878861e-41
0.55943441 0.0081032459 -0.20569503 1.8428476e-41
0.55922884 0.0075412341 -0.20545419 1.878861e-41
0.55902404 0.006980062 -0.20521368 1.878861e-41
0.55890054 0.006330342 -0.20493409 1.8428476e-41
0.55877823 0.0056818095 -0.20465499 1.878861e-41
0.55865699 0.0050345049 -0.2043764 1.843268e-41
0.55845594 0.004477249 -0.2041375 1.9513081e-41
0.55833685 0.0038321381 -0.20385981 1.8792814e-41
0.55813754 0.0032767544 -0.20362167 1.8792814e-41
0.55793905 0.0027221791 -0.20338385 1.9513081e-41
0.55782306 0.0020803022 -0.20310748 1.1206884e-40
0.55762625 0.001527591 -0.20287043 2.0231947e-41
0.55759442 0.00080013729 -0.20255621 1.9871814e-41
0.55756402 7.4261421e-05 -0.20224266 2.0231947e-41
0.55737031 -0.00047526741 -0.20200691 1.9871814e-41
0.55709481 -0.00093675021 -0.20181 1.9507476e-41
0.55681974 -0.0013977772 -0.20161326 2.0227743e-41
0.55654508 -0.001858333 -0.20141673 2.038787e-39
0.55627084 -0.0023184561 -0.20122035 1.7506986e-38
0.55591375 -0.0026916293 -0.20106235 1.72304e-38
0.55564022 -0.0031510366 -0.20086625 1.8609269e-38
0.55536705 -0.0036100007 -0.20067032 1.8517073e-38
0.55501056 -0.0039825686 -0.20051254 1.9160998e-38
0.55465412 -0.0043550581 -0.20035477 1.9160998e-38
0.55429775 -0.004727467 -0.20019703 1.9160998e-38
0.55394143 -0.0050998004 -0.2000393 1.9160998e-38
0.55358517 -0.0054720612 -0.1998816 1.9437588e-38
0.55314434 -0.0057592113 -0.19976148 1.9253196e-38
0.55278808 -0.0061315103 -0.19960372 1.9620544e-38
0.55234683 -0.0064190612 -0.19948341 1.971274e-38
0.55199045 -0.0067914044 -0.19932561 1.971274e-38
0.55146348 -0.0069950707 -0.19924237 1.9621623e-38
0.55110687 -0.0073676533 -0.19908443 1.9806014e-38
0.55057895 -0.0075722649 -0.19900076 1.9804935e-38
0.55005038 -0.0077775344 -0.19891679 1.9713446e-38
0.54960716 -0.0080670677 -0.19879556 1.9713446e-38
0.54907751 -0.0082735196 -0.19871105 1.9713796e-38
0.54854715 -0.0084806187 -0.19862626 1.9805995e-38
0.54801613 -0.0086883856 -0.19854118 1.9805995e-38
0.54739773 -0.0088139838 -0.19849245 1.9805995e-38
0.54686528 -0.0090232817 -0.19840668 1.9713799e-38
0.54633212 -0.009233254 -0.19832061 1.96216e-38
0.54562384 -0.0092792828 -0.1983071 1.9437209e-38
0.54508907 -0.009490978 -0.19822028 1.9345014e-38
0.5443784 -0.0095394542 -0.19820569 1.9252818e-38
0.54366636 -0.0095893182 -0.19819051 1.9252818e-38
0.54295295 -0.0096406098 -0.1981747 1.8977313e-38
0.54223824 -0.009693292 -0.19815829 1.8885117e-38
0.54152215 -0.0097474065 -0.19814126 1.8976963e-38
0.54080468 -0.0098029124 -0.19812362 1.8884061e-38
0.54008585 -0.0098598516 -0.19810535 1.8976256e-38
0.53936571 -0.0099182082 -0.19808647 1.8976256e-38
0.53855515 -0.0098974556 -0.19810265 1.8607474e-38
0.53765374 -0.0097981719 -0.19815363 1.8607471e-38
0.5368396 -0.0097811818 -0.19816817 1.8515275e-38
0.53602374 -0.0097659789 -0.19818194 1.8515275e-38
0.53520614 -0.0097525408 -0.19819495 1.833124e-38
0.53447676 -0.0098205116 -0.19817188 1.8146849e-38
0.53383601 -0.0099693146 -0.19811302 1.8146493e-38
0.533104 -0.010039963 -0.19808879 1.8238688e-38
0.5319187 -0.0097167371 -0.19823918 1.8330884e-38
0.56178004 0.0726282 -0.23280479 1.2907004e-38
0.56140625 0.072063282 -0.23256598 1.2814811e-38
0.5609653 0.071601875 -0.23237224 1.2999203e-38
0.56072837 0.070832685 -0.23204438 1.3090679e-38
0.56612664 0.049031213 -0.2226319 1.4157764e-38
0.56621099 0.047903344 -0.22214672 1.9992404e-38
0.56622744 0.046878211 -0.22170629 1.5751773e-38
0.56624621 0.045855526 -0.22126687 1.1310929e-38
0.5663383 0.0447358 -0.22078507 1.0849951e-38
0.56636196 0.0437182 -0.22034776 1.4556838e-38
0.56638795 0.042703055 -0.21991147 1.7977793e-38
0.5663448 0.041789308 -0.21951936 1.3275816e-38
0.56630361 0.040877618 -0.2191281 1.8069646e-38
0.56626439 0.039967969 -0.21873768 1.6966154e-38
0.5662992 0.038962048 -0.2183052 1.6584778e-38
0.56626403 0.038056727 -0.21791658 1.0499866e-38
0.56615853 0.03725148 -0.21757159 1.4894669e-38
0.56598204 0.036545713 -0.21726997 1.4700176e-38
0.56573409 0.03593887 -0.2170115 1.4423589e-38
0.56563282 0.035138097 -0.21666834 1.4973873e-38
0.5655331 0.034339014 -0.21632586 1.4788756e-38
0.56558162 0.03334742 -0.21589932 1.4604365e-38
0.56555891 0.032455169 -0.21551608 1.4786955e-38
0.56553817 0.031564943 -0.21513368 1.5154299e-38
0.56537175 0.030869752 -0.21483642 1.5521639e-38
0.56528056 0.03007956 -0.21449761 1.5521639e-38
0.56511682 0.029387141 -0.21420148 1.5796787e-38
0.56487995 0.028791983 -0.21394779 1.5796784e-38
0.56471843 0.028101943 -0.21365263 1.588898e-38
0.56455815 0.027413193 -0.21335799 1.5704589e-38
0.56439912 0.026725752 -0.21306388 1.5704589e-38
0.56424123 0.02603955 -0.21277028 1.5796784e-38
0.56415981 0.025259612 -0.21243571 1.6072648e-38
0.5640046 0.024576152 -0.21214323 1.6164844e-38
0.56385052 0.023893986 -0.2118513 1.6348156e-38
0.56362194 0.023307536 -0.21160115 1.625596e-38
0.56347018 0.022627685 -0.21131015 1.6347436e-38
0.56331956 0.021949124 -0.21101969 1.6347436e-38
0.5630939 0.021365726 -0.21077079 1.6347436e-38
0.56294549 0.020689502 -0.21048127 1.6347436e-38
0.56272167 0.020108068 -0.21023317 1.5246497e-38
0.56257552 0.019434143 -0.20994459 1.5062106e-38
0.5624305 0.018761495 -0.20965655 8.9170899e-39
0.56228673 0.018090082 -0.209369 2.8638813e-39
0.56222147 0.017327111 -0.20904139 2.6794901e-39
0.56208026 0.016658366 -0.20875494 1.1025697e-40
0.56194019 0.015990889 -0.20846902 1.8785807e-41
0.56180131 0.01532463 -0.20818359 1.8785807e-41
0.56158561 0.014751697 -0.20793894 1.8428476e-41
0.56144887 0.014087752 -0.20765446 1.878861e-41
0.56123501 0.01351674 -0.2074106 1.1170451e-40
0.56110048 0.01285508 -0.20712705 1.9869011e-41
0.56088835 0.012285983 -0.20688397 1.9148744e-41
0.56067711 0.011717744 -0.20664123 1.878861e-41
0.56054574 0.011059402 -0.20635904 1.9148744e-41
0.56033629 0.010493067 -0.20611708 1.9148744e-41
0.56012762 0.0099275848 -0.20587546 1.878861e-41
0.55991983 0.009362963 -0.20563418 1.8792814e-41
0.55971277 0.0087992046 -0.20539327 1.843268e-41
0.55950654 0.008236276 -0.20515268 1.8072546e-41
0.55930114 0.0076742047 -0.20491244 1.843268e-41
0.55909652 0.0071129915 -0.20467255 1.8072546e-41
0.55897319 0.0064630834 -0.20439379 1.8072546e-41
0.55885106 0.0058143837 -0.20411554 1.843268e-41
0.55873001 0.0051669097 -0.20383778 1.843268e-41
0.55861014 0.0045206174 -0.20356052 1.9513081e-41
0.55841023 0.0039643347 -0.20332263 1.8792814e-41
0.55821109 0.0034088658 -0.20308508 1.9513081e-41
0.55801272 0.0028542369 -0.20284785 1.8795616e-41
0.55781519 0.0023004345 -0.20261098 1.9876017e-41
0.55778223 0.0015713583 -0.20229729 2.023475e-41
0.55766863 0.00093169865 -0.20202273 1.9871814e-41
0.55763847 0.00020555276 -0.20171025 2.0231947e-41
0.5573625 -0.00025651671 -0.20151344 2.0231947e-41
0.55716956 -0.00080546667 -0.20127854 1.9507476e-41
0.55689466 -0.0012664311 -0.20108216 2.0587877e-41
0.55662018 -0.0017269469 -0.20088597 2.1302539e-39
0.55634612 -0.0021870222 -0.20068993 1.7414052e-38
0.55607247 -0.0026466441 -0.20049408 1.7137465e-38
0.5557158 -0.0030193974 -0.20033629 1.8148293e-38
0.55544287 -0.0034783077 -0.20014071 1.8976609e-38
0.55508649 -0.0038507192 -0.19998303 1.9161001e-38
0.55473024 -0.0042230473 -0.19982538 1.9160998e-38
0.55437404 -0.0045953006 -0.19966774 1.9068802e-38
0.5540179 -0.0049674762 -0.19951011 1.9160998e-38
0.5535773 -0.0052542468 -0.19938992 1.934431e-38
0.55322111 -0.0056264601 -0.19923225 1.9436506e-38
0.55286497 -0.0059985989 -0.1990746 1.9620897e-38
0.55242389 -0.0062858853 -0.19895415 1.9805291e-38
0.55198252 -0.0065734666 -0.19883355 1.9805291e-38
0.55162627 -0.006945766 -0.1986758 1.9989332e-38
0.55118448 -0.007233765 -0.19855499 2.0081528e-38
0.55065668 -0.0074380208 -0.19847092 1.9898215e-38
0.55021411 -0.0077267992 -0.19834977 1.9898563e-38
0.54968524 -0.0079321861 -0.19826519 1.9621976e-38
0.54915571 -0.0081382431 -0.19818032 1.9530131e-38
0.54862553 -0.0083449846 -0.19809514 1.9622326e-38
0.54809469 -0.0085523808 -0.19800967 1.9622326e-38
0.5475632 -0.0087604467 -0.1979239 1.9622326e-38
0.54703104 -0.0089692064 -0.19783781 1.9622326e-38
0.54641116 -0.0090960162 -0.1977877 1.9438291e-38
0.54579026 -0.0092238626 -0.19773714 1.9438291e-38
0.54516834 -0.0093527762 -0.19768611 1.9161704e-38
0.54454541 -0.0094827088 -0.19763462 1.9069508e-38
0.54383373 -0.0095318193 -0.19761863 1.9069508e-38
0.54312068 -0.0095823212 -0.19760205 1.8976957e-38
0.54240626 -0.0096342536 -0.19758484 1.9069153e-38
0.54169053 -0.009687596 -0.197567 1.9161354e-38
0.54097337 -0.0097423298 -0.19754857 1.8884777e-38
0.54025489 -0.0097984998 -0.19752951 1.8884777e-38
0.53944618 -0.009775267 -0.19754533 1.888478e-38
0.53863579 -0.0097538363 -0.19756038 1.8515997e-38
0.53782368 -0.0097341854 -0.19757466 1.8607474e-38
0.53700984 -0.009716318 -0.19758816 1.8515278e-38
0.53619432 -0.0097002154 -0.1976009 1.8515275e-38
0.53537709 -0.0096859168 -0.19761285 1.8423436e-38
0.534648 -0.0097531155 -0.197589 1.8239044e-38
0.53391749 -0.0098217232 -0.19756453 1.833124e-38
0.53309548 -0.0098124295 -0.1975743 1.833124e-38
0.53200048 -0.0095674284 -0.19768773 1.8330884e-38
0.56170422 0.072996274 -0.23225507 1.2723695e-38
0.56133026 0.072431013 -0.23201655 1.2814811e-38
0.5609569 0.071866386 -0.23177826 1.2999203e-38
0.56071997 0.0710968 -0.23145124 1.29992e-38
0.56604838 0.049377855 -0.22212185 1.3974467e-38
0.56613255 0.048249017 -0.2216384 1.9716183e-38
0.56621945 0.047123004 -0.22115611 1.6672655e-38
0.56623822 0.046099622 -0.22071823 1.2042381e-38
0.56625938 0.045078669 -0.22028136 1.2042381e-38
0.56621176 0.044159617 -0.2198886 1.2525293e-38
0.56623739 0.043143403 -0.21945369 1.7516812e-38
0.5662654 0.042129658 -0.2190198 1.4935335e-38
0.56622404 0.041217186 -0.21862975 1.7423916e-38
0.56625646 0.040208098 -0.21819779 1.7149466e-38
0.56629127 0.039201476 -0.21776684 1.4640754e-38
0.56625617 0.038295582 -0.21737951 9.7543854e-39
0.56622303 0.037391748 -0.21699303 1.4060221e-38
0.56604671 0.036685787 -0.2166923 1.4790564e-38
0.56587166 0.03598116 -0.2163921 1.4513977e-38
0.56577075 0.035180267 -0.21605013 1.4972428e-38
0.56567144 0.034381066 -0.21570887 1.4971349e-38
0.56572026 0.033389185 -0.215284 1.5062103e-38
0.56562454 0.032593686 -0.21494427 1.5062103e-38
0.56560397 0.031703062 -0.21456324 1.5062103e-38
0.56543773 0.031007698 -0.21426684 1.5429444e-38
0.56527275 0.030313648 -0.21397097 1.5521639e-38
0.56510901 0.029620858 -0.21367563 1.5704952e-38
0.56487209 0.029025452 -0.21342251 1.5704949e-38
0.56478512 0.028239168 -0.21308655 1.5797144e-38
0.56455034 0.027645931 -0.21283428 1.5704589e-38
0.56446612 0.026862605 -0.21249954 1.5704946e-38
0.56430846 0.026176227 -0.21220683 1.579714e-38
0.564152 0.025491146 -0.21191463 1.5889336e-38
0.56407219 0.024712365 -0.21158174 1.6164488e-38
0.56384271 0.024124792 -0.2113318 1.6164488e-38
0.56368989 0.023443496 -0.21104115 1.625596e-38
0.56353825 0.022763494 -0.21075103 1.625596e-38
0.56331176 0.022178952 -0.21050231 1.6255959e-38
0.56316233 0.021501273 -0.21021314 1.6163765e-38
0.56293768 0.020918714 -0.20996523 1.5337604e-38
0.56279051 0.020243365 -0.209677 1.020241e-38
0.56256771 0.019662749 -0.20942988 9.7414318e-39
0.5624997 0.018896447 -0.20910211 3.045746e-39
0.56235611 0.018224843 -0.20881541 3.8576486e-40
0.56221366 0.017554522 -0.20852925 5.7015612e-40
0.56214994 0.016792681 -0.20820332 1.9145941e-41
0.56201005 0.016125023 -0.20791824 1.1134858e-40
0.56187141 0.015458599 -0.20763367 1.843268e-41
0.56165582 0.014885591 -0.20738964 1.843268e-41
0.56144106 0.014313486 -0.20714597 1.8792814e-41
0.56130558 0.013650402 -0.20686276 1.9513081e-41
0.56117123 0.01298857 -0.20658006 1.9873215e-41
0.56095934 0.012419409 -0.20633759 1.8792814e-41
0.56074822 0.011851102 -0.20609546 1.843268e-41
0.56053793 0.011283685 -0.20585369 1.8792814e-41
0.56040776 0.010626191 -0.20557275 1.843268e-41
0.56019932 0.010060646 -0.20533174 1.843268e-41
0.5599916 0.0094959764 -0.20509109 1.8792814e-41
0.55978477 0.0089321369 -0.20485076 1.8072546e-41
0.55949879 0.0084593305 -0.20464997 1.8072546e-41
0.55929333 0.0078970017 -0.20441025 1.8435483e-41
0.55916905 0.0072457381 -0.20413186 1.8435483e-41
0.55904591 0.0065956577 -0.20385395 1.8435483e-41
0.55900455 0.0058573685 -0.20353766 1.8075349e-41
0.55880308 0.00529915 -0.20329961 1.8435483e-41
0.5586834 0.0046526892 -0.20302318 1.9513081e-41
0.5584836 0.0040963516 -0.20278591 1.8792814e-41
0.55828464 0.0035408288 -0.20254895 1.9513081e-41
0.55808651 0.0029861277 -0.20231232 1.8795616e-41
0.55797082 0.0023439415 -0.20203763 1.9515884e-41
0.55777442 0.0017910934 -0.20180176 1.9515884e-41
0.55774289 0.0010631166 -0.20148972 1.9874616e-41
0.55771291 0.00033667771 -0.20117828 2.0594884e-41
0.55751956 -0.00021296569 -0.20094372 2.0231947e-41
0.55724436 -0.00067433168 -0.20074753 1.9151546e-41
0.55696958 -0.0011352593 -0.20055149 2.0231947e-41
0.55669528 -0.0015957381 -0.20035565 2.4053961e-39
0.5564214 -0.0020557602 -0.20015997 1.7965055e-38
0.55606467 -0.0024286201 -0.20000219 1.7780664e-38
0.55579144 -0.0028879249 -0.19980678 1.8516e-38
0.55551863 -0.0033467889 -0.19961154 1.8976253e-38
0.55516249 -0.0037190414 -0.19945398 1.9068449e-38
0.55480635 -0.0040912111 -0.19929643 1.9344313e-38
0.55445033 -0.0044633048 -0.19913889 1.9252117e-38
0.55409437 -0.0048353244 -0.19898136 1.9160998e-38
0.55373842 -0.0052072657 -0.19882387 1.934431e-38
0.55329794 -0.0054938844 -0.19870347 1.9436506e-38
0.55294198 -0.0058658635 -0.19854592 1.9804209e-38
0.55250102 -0.006152885 -0.19842534 1.9896761e-38
0.552145 -0.0065249088 -0.19826773 2.0081152e-38
0.55161834 -0.0067278123 -0.19818373 2.0172641e-38
0.55126208 -0.0071000727 -0.19802599 2.0264837e-38
0.55073446 -0.007303956 -0.19794154 1.9988976e-38
0.55029207 -0.0075924667 -0.19782025 1.9989682e-38
0.54976332 -0.0077974792 -0.19773528 1.9989682e-38
0.54923391 -0.0080031604 -0.19765003 1.9714525e-38
0.54870391 -0.0082095331 -0.19756445 1.9714528e-38
0.54817319 -0.0084165512 -0.19747861 1.9714528e-38
0.54764187 -0.0086242436 -0.19739245 1.9714525e-38
0.5471099 -0.0088326102 -0.19730598 1.9622329e-38
0.54649013 -0.0089589581 -0.19725524 1.9530487e-38
0.54586941 -0.009086323 -0.19720404 1.9438291e-38
0.54524767 -0.0092147514 -0.19715238 1.9438291e-38
0.54462492 -0.0093442034 -0.19710027 1.92539e-38
0.54391336 -0.0093927281 -0.19708341 1.9161704e-38
0.54320043 -0.0094426395 -0.19706595 1.9069153e-38
0.54248619 -0.0094939806 -0.19704786 1.9069153e-38
0.54177052 -0.0095467158 -0.19702917 1.9161348e-38
0.54105359 -0.0096008815 -0.19700985 1.9069158e-38
0.54033524 -0.00965646 -0.19698991 1.8976963e-38
0.53961551 -0.0097134355 -0.19696936 1.8976609e-38
0.53880543 -0.0096911257 -0.19698338 1.8792218e-38
0.53799367 -0.0096705984 -0.19699661 1.8791862e-38
0.53709078 -0.0095714927 -0.1970441 1.8515631e-38
0.53627539 -0.0095546925 -0.19705573 1.8515631e-38
0.53545827 -0.0095396973 -0.19706656 1.8423436e-38
0.53463948 -0.0095264874 -0.19707662 1.8423436e-38
0.53390896 -0.0095946845 -0.19705118 1.8515278e-38
0.53317714 -0.0096643278 -0.19702512 1.8423083e-38
0.53208226 -0.0094183097 -0.1971367 1.8238694e-38
0.56125438 0.072799064 -0.23146661 6.7266768e-39
0.56067759 0.072543316 -0.2313616 6.8188725e-39
0.56050783 0.07166972 -0.23099086 6.7277488e-39
0.56589997 0.049825251 -0.22165453 1.2963928e-38
0.56605417 0.048594978 -0.22112957 1.9348123e-38
0.56607032 0.047568038 -0.22069204 1.897862e-38
0.56615955 0.046443682 -0.22021256 9.2980791e-39
0.56618053 0.045421876 -0.21977717 1.2227124e-38
0.56613272 0.044502039 -0.21938562 1.1600819e-38
0.56615824 0.043484941 -0.21895216 1.7240228e-38
0.56618601 0.042470314 -0.21851973 1.5027533e-38
0.56621617 0.041458104 -0.21808831 1.6957896e-38
0.56624866 0.040448319 -0.21765788 1.8894704e-38
0.56628346 0.039441001 -0.21722847 1.2880042e-38
0.56632054 0.038436122 -0.21680006 1.1312716e-38
0.56621522 0.037630104 -0.21645725 1.3782185e-38
0.56611151 0.036825739 -0.2161151 1.4697286e-38
0.56600934 0.036023077 -0.21577366 1.4697286e-38
0.56590879 0.035222109 -0.2154329 1.4788034e-38
0.56580985 0.034422778 -0.21509282 1.4879507e-38
0.56578577 0.033527859 -0.21471155 1.5062459e-38
0.56576365 0.032634992 -0.21433111 1.5062459e-38
0.56566983 0.031841055 -0.21399325 1.5245771e-38
0.56550378 0.031145524 -0.21369773 1.5429444e-38
0.56533897 0.030451261 -0.21340273 1.5521639e-38
0.56510121 0.029854661 -0.21314979 1.5704952e-38
0.56493866 0.02916282 -0.21285577 1.588898e-38
0.56477737 0.028472234 -0.21256228 1.5796784e-38
0.56461722 0.027782956 -0.21226931 1.5704589e-38
0.56445837 0.027094938 -0.21197686 1.5980453e-38
0.56437576 0.026312789 -0.21164382 1.5980453e-38
0.56421947 0.025627505 -0.21135248 1.6072648e-38
0.56406438 0.024943499 -0.21106167 1.6072292e-38
0.56391054 0.024260791 -0.21077138 1.6255604e-38
0.5637579 0.023579316 -0.21048161 1.6255604e-38
0.5635305 0.022993647 -0.21023309 1.625596e-38
0.56338012 0.02231453 -0.20994426 1.6163765e-38
0.56323087 0.021636665 -0.20965596 1.6071571e-38
0.5630064 0.021054041 -0.20940866 1.3870763e-38
0.56285936 0.02037851 -0.2091213 6.9003075e-39
0.56263673 0.01979783 -0.20887479 6.3471338e-39
0.56249195 0.019124649 -0.20858838 1.5781774e-39
0.56242549 0.018359473 -0.20826229 1.8424272e-41
0.56228328 0.017688967 -0.20797698 1.106199e-40
0.56214219 0.017019695 -0.20769218 1.8785807e-41
0.56208003 0.016259016 -0.20736793 1.1134858e-40
0.56186366 0.015684893 -0.20712408 1.843268e-41
0.56172609 0.015019364 -0.2068408 1.843268e-41
0.56158978 0.014355053 -0.20655802 1.8792814e-41
0.56137621 0.013783908 -0.20631537 1.8792814e-41
0.56124204 0.013121902 -0.20603353 1.9513081e-41
0.56110907 0.012461111 -0.20575218 1.8792814e-41
0.5608983 0.011892946 -0.20551074 1.8792814e-41
0.56068838 0.011325622 -0.20526965 1.8792814e-41
0.56047928 0.010759155 -0.20502889 1.843268e-41
0.56027097 0.010193551 -0.20478849 1.843268e-41
0.56006348 0.0096288193 -0.20454843 1.8792814e-41
0.55985683 0.0090649119 -0.20430872 1.843268e-41
0.55965096 0.0085018612 -0.20406935 1.8072546e-41
0.55944586 0.007939687 -0.20383032 1.8435483e-41
0.55924159 0.0073783272 -0.20359163 1.8792814e-41
0.55911863 0.0067280768 -0.20331456 1.843268e-41
0.5589968 0.0060790628 -0.20303799 1.843268e-41
0.55887616 0.0054312297 -0.2027619 1.9515884e-41
0.55875665 0.004784626 -0.20248632 1.9513081e-41
0.55855703 0.0042282026 -0.20224963 1.9513081e-41
0.55835825 0.0036726154 -0.20201327 1.9873215e-41
0.55816031 0.0031178631 -0.20177725 1.9151546e-41
0.55804479 0.0024755069 -0.2015034 1.9151546e-41
0.55793047 0.0018343205 -0.20123002 1.9151546e-41
0.5578993 0.0011062588 -0.20091911 1.9871814e-41
0.55770516 0.00055554835 -0.20068473 2.0231947e-41
0.55759418 -8.2045866e-05 -0.20041282 2.0231947e-41
0.55731916 -0.00054337754 -0.20021696 1.9148744e-41
0.55704463 -0.0010042633 -0.20002128 1.9869011e-41
0.55677044 -0.0014646845 -0.19982579 3.4159327e-39
0.55641365 -0.0018376611 -0.19966802 1.8057226e-38
0.55614018 -0.0022973642 -0.19947278 1.796503e-38
0.55586714 -0.0027566233 -0.19927773 1.8791868e-38
0.55551088 -0.0031289815 -0.19912016 1.9159569e-38
0.55523849 -0.0035875316 -0.19892538 1.9251764e-38
0.55488253 -0.0039595449 -0.19876793 1.9527269e-38
0.55452669 -0.0043314826 -0.19861048 1.9435074e-38
0.55417085 -0.0047033429 -0.19845307 1.9713095e-38
0.55373061 -0.004989583 -0.19833261 1.9436509e-38
0.55337471 -0.0053614834 -0.19817515 1.9436509e-38
0.55301893 -0.005733307 -0.19801769 1.9620897e-38
0.55257815 -0.0060200589 -0.19789696 1.9896401e-38
0.55213714 -0.0063071088 -0.19777609 2.0172988e-38
0.55178118 -0.0066790893 -0.19761851 2.0265183e-38
0.55125415 -0.0068821027 -0.19753392 2.0357379e-38
0.55081224 -0.0071700444 -0.19741262 2.0173348e-38
0.55037004 -0.0074583115 -0.19729117 2.0173348e-38
0.5498414 -0.0076629496 -0.19720583 2.0173348e-38
0.54931217 -0.0078682601 -0.19712017 2.0082231e-38
0.54878229 -0.0080742361 -0.19703424 1.9990035e-38
0.54825181 -0.0082809012 -0.19694798 1.989784e-38
0.54772061 -0.0084882211 -0.19686143 2.0081502e-38
0.54718876 -0.0086962096 -0.19677459 2.0081502e-38
0.54665631 -0.0089049004 -0.19668743 1.9897459e-38
0.54603589 -0.0090316059 -0.19663568 2.008185e-38
0.54541445 -0.0091593498 -0.19658348 1.9897459e-38
0.54470438 -0.0092058815 -0.19656636 1.9805266e-38
0.543993 -0.0092538139 -0.19654863 1.9805266e-38
0.54328024 -0.0093031423 -0.1965303 1.9620877e-38
0.54256612 -0.0093538947 -0.19651133 1.9528682e-38
0.54185063 -0.0094060404 -0.19649176 1.9528679e-38
0.54113382 -0.0094596157 -0.19647157 1.9528679e-38
0.54041559 -0.009514587 -0.19645077 1.9436483e-38
0.53969604 -0.0095709916 -0.19642934 1.9343935e-38
0.53888613 -0.0095479861 -0.19644223 1.9159543e-38
0.53807449 -0.0095267603 -0.19645435 1.8976234e-38
0.53726107 -0.0095072994 -0.1964657 1.9068076e-38
0.53644603 -0.0094896415 -0.19647628 1.8975881e-38
0.53553951 -0.009393665 -0.1965207 1.8791862e-38
0.53472084 -0.0093797594 -0.19652964 1.8607471e-38
0.53390044 -0.0093676215 -0.19653781 1.8700035e-38
0.53316855 -0.0094368551 -0.19651079 1.8423448e-38
0.53225446 -0.0093487604 -0.1965518 1.8331253e-38
0.53115714 -0.009104426 -0.19666037 1.8423448e-38
0.56060153 0.072911665 -0.23081072 5.3437452e-39
0.56015998 0.072449379 -0.230617 5.2515496e-39
0.56575155 0.050273191 -0.22118624 1.1971028e-38
0.56590551 0.049041618 -0.22066313 1.400367e-38
0.56606245 0.04781324 -0.22014135 1.8617046e-38
0.56608093 0.046788082 -0.2197064 1.0411635e-38
0.56610173 0.045765381 -0.21927246 1.0575888e-38
0.56605375 0.044844761 -0.21888213 9.2069779e-39
0.56607908 0.043826781 -0.21845014 1.8067112e-38
0.5661782 0.04271201 -0.21797673 1.6407591e-38
0.56620836 0.041699111 -0.21754685 1.1315248e-38
0.56624091 0.040688638 -0.21711795 1.5539317e-38
0.56634772 0.039581951 -0.21664788 1.3508122e-38
0.56631279 0.03867504 -0.2162632 1.4061296e-38
0.56627983 0.037770215 -0.21587938 1.3413034e-38
0.5661763 0.036965583 -0.21553837 1.4329939e-38
0.56607437 0.036162607 -0.21519804 1.4422134e-38
0.565974 0.035361335 -0.21485841 1.4604362e-38
0.56594831 0.034464143 -0.21447772 1.4695116e-38
0.56585133 0.033666406 -0.21413954 1.5154655e-38
0.5657559 0.032870345 -0.21380204 1.5062459e-38
0.56566209 0.032075923 -0.21346521 1.5245771e-38
0.56556988 0.0312832 -0.21312909 1.5245771e-38
0.56533128 0.030685404 -0.2128763 1.5430163e-38
0.56516767 0.029992072 -0.21258263 1.5704949e-38
0.5650053 0.029300051 -0.2122895 1.5796784e-38
0.56476963 0.028705381 -0.212038 1.5796784e-38
0.56468421 0.027919831 -0.21170479 1.579714e-38
0.56452554 0.027231628 -0.2114132 1.5980453e-38
0.56436801 0.026544727 -0.21112216 1.5980453e-38
0.56428701 0.02576373 -0.21079081 1.6072648e-38
0.56405669 0.025174715 -0.21054159 1.6072292e-38
0.56390285 0.024491634 -0.21025209 1.625596e-38
0.56375021 0.0238098 -0.2099631 1.625596e-38
0.56352282 0.023223871 -0.20971511 1.6163765e-38
0.56337237 0.02254439 -0.20942707 1.5704946e-38
0.56322318 0.021866158 -0.20913956 1.5704946e-38
0.56307513 0.021189222 -0.20885254 1.0843809e-38
0.56285167 0.020607391 -0.20860623 3.6889504e-39
0.56270587 0.019932782 -0.20832017 3.3201679e-39
0.56256121 0.019259403 -0.2080346 4.7687168e-40
0.56249493 0.018493963 -0.20770963 1.8424272e-41
0.5623529 0.01782327 -0.20742516 1.8424272e-41
0.56221205 0.01715382 -0.20714121 1.8425674e-41
0.56207234 0.016485633 -0.20685777 1.878861e-41
0.56193382 0.015818669 -0.20657483 1.8428476e-41
0.56179649 0.015152961 -0.20629241 1.8068342e-41
0.56158209 0.014580704 -0.20604995 1.7711011e-41
0.56144691 0.013917289 -0.20576845 1.7711011e-41
0.56131291 0.01325509 -0.20548744 2.9501677e-40
0.56110138 0.012685794 -0.2052462 1.9148744e-41
0.56096953 0.012025891 -0.20496611 1.9148744e-41
0.56075978 0.011458506 -0.20472564 1.8792814e-41
0.56055087 0.010891974 -0.20448549 1.843268e-41
0.56034273 0.010326318 -0.2042457 1.878861e-41
0.56013542 0.009761502 -0.20400624 1.878861e-41
0.55984908 0.0092881098 -0.20380591 1.878861e-41
0.55964321 0.0087248133 -0.20356706 1.8428476e-41
0.55943817 0.0081623895 -0.20332856 1.8428476e-41
0.55931419 0.0075107594 -0.20305184 1.9148744e-41
0.55919141 0.0068603358 -0.20277561 1.9148744e-41
0.55906975 0.00621115 -0.20249988 1.9148744e-41
0.55894929 0.0055631553 -0.20222464 2.0229145e-41
0.5588299 0.0049163802 -0.20194989 1.9513081e-41
0.55863053 0.0043598888 -0.2017138 1.9873215e-41
0.55843192 0.0038042502 -0.20147803 2.0231947e-41
0.55831563 0.0031607053 -0.20120461 1.9871814e-41
0.55811876 0.0026069102 -0.20096959 1.9871814e-41
0.55800462 0.0019655565 -0.20069705 1.9151546e-41
0.55789155 0.001325415 -0.200425 2.0231947e-41
0.55777967 0.0006864515 -0.20015344 2.0592081e-41
0.55766886 4.869129e-05 -0.19988236 2.0231947e-41
0.55739403 -0.00041259394 -0.19968686 1.9145941e-41
0.55711967 -0.00087342726 -0.19949153 1.9866208e-41
0.5567627 -0.0012465192 -0.19933377 4.613743e-39
0.55648899 -0.0017066207 -0.19913872 1.8057579e-38
0.5562157 -0.0021662808 -0.19894382 1.8057579e-38
0.55594283 -0.0026254917 -0.19874911 1.8792584e-38
0.55567032 -0.0030842323 -0.19855458 1.9159566e-38
0.55531448 -0.0034561697 -0.19839722 1.906737e-38
0.5549587 -0.0038280289 -0.19823988 1.934431e-38
0.55460298 -0.0041998094 -0.19808255 1.9620897e-38
0.55424738 -0.0045715147 -0.19792524 1.9620897e-38
0.55389178 -0.0049431426 -0.19776793 1.9436509e-38
0.5534516 -0.005229251 -0.19764726 1.96209e-38
0.55309594 -0.0056009158 -0.1974899 1.9805288e-38
0.55265534 -0.0058874013 -0.19736904 1.9896761e-38
0.55221444 -0.0061741886 -0.19724803 2.0081152e-38
0.55177325 -0.0064612702 -0.19712688 2.0173348e-38
0.55133182 -0.0067486526 -0.19700557 2.0265543e-38
0.55089003 -0.0070363288 -0.19688413 2.0265543e-38
0.55036211 -0.0072401343 -0.19679862 2.0173348e-38
0.54983348 -0.0074445796 -0.19671281 2.0173348e-38
0.54939049 -0.0077335336 -0.19659078 2.0265541e-38
0.54886073 -0.0079391347 -0.19650444 2.0265541e-38
0.54833037 -0.0081454301 -0.19641781 2.0173345e-38
0.54779935 -0.0083523747 -0.19633088 2.00815e-38
0.54726768 -0.0085599916 -0.19624363 2.00815e-38
0.54673535 -0.0087682866 -0.19615608 1.9989654e-38
0.5461151 -0.0088945292 -0.19610371 2.008185e-38
0.54549384 -0.0090217944 -0.19605087 1.9989654e-38
0.54487157 -0.0091501223 -0.19599757 1.9989657e-38
0.54416043 -0.0091972686 -0.19597906 1.9897461e-38
0.54344803 -0.0092458464 -0.19595991 1.9805266e-38
0.54273421 -0.0092958082 -0.19594017 1.9620872e-38
