# .PCD v0.7 - Point Cloud Data file format
VERSION 0.7
FIELDS x y z rgb
SIZE 4 4 4 4
TYPE F F F F
COUNT 1 1 1 1
WIDTH 981
HEIGHT 1
VIEWPOINT 0 0 0 1 0 0 0
POINTS 981
DATA ascii
0.56038916 0.010460158 -0.1694366 2.2943555e-38
0.56012392 0.0098380037 -0.16939537 2.3034309e-38
0.55973226 0.009213117 -0.16934276 2.2942093e-38
0.55946702 0.0085884221 -0.16930127 2.2942093e-38
0.55907524 0.0079604611 -0.16924842 2.2849176e-38
0.55855703 0.007328433 -0.16918416 2.3124684e-38
0.55816525 0.0066968524 -0.16913101 2.3032488e-38
0.55764693 0.0060606739 -0.16906644 2.3032486e-38
0.55712855 0.0054222816 -0.16900173 2.3032486e-38
0.55673665 0.0047851186 -0.16894816 2.303176e-38
0.55621815 0.0041425545 -0.16888313 2.3124311e-38
0.55569965 0.0034977687 -0.16881795 2.3124311e-38
0.55530757 0.0028549943 -0.16876394 2.3399839e-38
0.55491543 0.0022105223 -0.16870977 2.3492034e-38
0.55477625 0.0015738837 -0.16867813 2.3492407e-38
0.55451047 0.00093156513 -0.16863504 2.3493144e-38
0.55449772 0.00029865984 -0.16861454 2.3492784e-38
0.554232 -0.00034548974 -0.1685712 2.3121143e-38
0.55409271 -0.00098499982 -0.16853914 2.2382495e-38
0.55451131 0.06174745 -0.16945416 1.2425815e-38
0.55487722 0.061050657 -0.16947491 1.2238888e-38
0.55511719 0.060375396 -0.16948466 1.1870105e-38
0.5553571 0.059701346 -0.16949433 1.1777185e-38
0.55559707 0.059028488 -0.16950394 1.2145603e-38
0.55558497 0.058394853 -0.16949153 1.2145603e-38
0.55569893 0.057742611 -0.16949001 1.2236721e-38
0.55568683 0.057109486 -0.16947745 1.2789169e-38
0.55580074 0.056458298 -0.16947578 1.2512586e-38
0.55604076 0.055789806 -0.16948505 1.4633054e-38
0.55628079 0.055122506 -0.16949426 2.3490576e-38
0.55664688 0.054438956 -0.16951442 2.3489135e-38
0.55701303 0.053757124 -0.16953452 2.3399444e-38
0.55750525 0.053060096 -0.16956559 2.3494874e-38
0.55787146 0.052381918 -0.1695856 2.3495954e-38
0.55823767 0.05170545 -0.16960555 2.3497389e-38
0.55873001 0.051014565 -0.1696365 2.3499917e-38
0.55909628 0.050341737 -0.16965638 2.3499557e-38
0.55946255 0.049670596 -0.16967618 2.3499918e-38
0.55970275 0.049016442 -0.16968489 2.3500284e-38
0.56006908 0.048348397 -0.1697046 2.3500644e-38
0.56043547 0.047682032 -0.16972426 2.3501727e-38
0.56067574 0.047031853 -0.16973278 2.350137e-38
0.56091601 0.046382815 -0.16974126 2.3316619e-38
0.5612824 0.045720939 -0.16976076 2.3316621e-38
0.5613966 0.045088157 -0.16975801 2.3502456e-38
0.56163692 0.044442531 -0.16976631 2.3502456e-38
0.56187725 0.043798037 -0.16977453 2.3502096e-38
0.56211764 0.043154668 -0.1697827 2.3503538e-38
0.56223184 0.042525087 -0.16977969 2.3503538e-38
0.56234604 0.041896101 -0.16977662 2.3503193e-38
0.56258643 0.041255575 -0.16978459 2.3412079e-38
0.56270069 0.040628031 -0.16978136 2.3504635e-38
0.56281489 0.040001076 -0.16977806 2.3505718e-38
0.56292909 0.039374705 -0.16977471 2.3508601e-38
0.56304336 0.038748909 -0.16977125 2.3509684e-38
0.56303138 0.038134504 -0.16975661 2.3509334e-38
0.56314564 0.037509605 -0.169753 2.3508973e-38
0.5632599 0.036885273 -0.16974935 2.2766023e-38
0.56324792 0.036271527 -0.16973443 2.2297856e-38
0.56336218 0.035648074 -0.16973062 2.2021269e-38
0.56347644 0.035025176 -0.16972673 2.1464483e-38
0.56346446 0.034412067 -0.16971157 2.1372992e-38
0.56345248 0.033798996 -0.16969632 1.9621275e-38
0.5634405 0.033185944 -0.169681 1.9712389e-38
0.56342852 0.032572925 -0.16966559 1.9618754e-38
0.56341654 0.031959925 -0.16965008 1.9434363e-38
0.5635308 0.031339034 -0.16964573 1.7866314e-38
0.56351876 0.030726336 -0.16963007 1.7313174e-38
0.56350678 0.03011365 -0.1696143 1.740537e-38
0.56349474 0.029500978 -0.16959848 1.6483786e-38
0.5634827 0.028888311 -0.16958255 1.6299395e-38
0.56347066 0.028275652 -0.16956653 1.5286672e-38
0.56345862 0.027662996 -0.16955043 1.602566e-38
0.56344658 0.027050342 -0.16953424 1.6210051e-38
0.56343454 0.026437685 -0.16951796 1.6210054e-38
0.5634225 0.02582502 -0.16950162 1.6577764e-38
0.5634104 0.025212351 -0.16948517 1.6946547e-38
0.5633983 0.024599668 -0.16946864 1.6854351e-38
0.5632599 0.023991721 -0.1694407 1.6947622e-38
0.56324786 0.023378745 -0.16942398 1.74086e-38
0.5632357 0.022765752 -0.16940717 1.7685531e-38
0.5632236 0.022152739 -0.16939029 1.8700385e-38
0.5632115 0.021539697 -0.16937332 1.8792581e-38
0.56307304 0.020930059 -0.1693449 2.0264827e-38
0.56293452 0.02031986 -0.16931638 2.0725805e-38
0.56292236 0.019706205 -0.16929913 2.1002392e-38
0.56278384 0.019095147 -0.16927041 2.1004574e-38
0.56264532 0.018483523 -0.16924159 2.2203117e-38
0.5626331 0.017869225 -0.16922405 2.257407e-38
0.56236821 0.017258568 -0.16918364 2.3497825e-38
0.562356 0.016643651 -0.16916591 2.3498905e-38
0.56209099 0.016031314 -0.16912527 2.350071e-38
0.56207871 0.015415768 -0.16910736 2.3499997e-38
0.56181371 0.014801741 -0.16906649 2.3407441e-38
0.56167501 0.014186078 -0.16903695 2.313121e-38
0.56140995 0.013570083 -0.16899586 2.3039014e-38
0.56127125 0.012952976 -0.16896608 2.2947151e-38
0.56100607 0.012335002 -0.16892476 2.2853505e-38
0.56074089 0.011715906 -0.16888331 2.2761309e-38
0.56047571 0.011095681 -0.16884175 2.2943903e-38
0.56008404 0.010473263 -0.16878858 2.2851707e-38
0.55981874 0.0098505076 -0.16874675 2.3035015e-38
0.55942702 0.0092250258 -0.16869332 2.2849542e-38
0.55903524 0.0085978732 -0.16863973 2.2941738e-38
0.55864346 0.0079690507 -0.16858602 2.3033214e-38
0.55812508 0.0073361704 -0.16852064 2.3125413e-38
0.55773324 0.0067037293 -0.16846663 2.2941021e-38
0.5572148 0.0060666944 -0.16840094 2.3125037e-38
0.55669636 0.0054274476 -0.16833511 2.2940646e-38
0.55605131 0.0047825403 -0.16825755 2.303211e-38
0.55553275 0.0041385945 -0.16819139 2.3124309e-38
0.55514061 0.003496387 -0.16813664 2.33087e-38
0.55449545 0.002844017 -0.16805857 2.3493139e-38
0.5544827 0.0022113845 -0.16803829 2.3493859e-38
0.55434346 0.0015738723 -0.16800632 2.3492413e-38
0.55433065 0.00094074052 -0.16798584 2.3492061e-38
0.55444443 0.00031277983 -0.1679769 2.3123279e-38
0.55457181 0.061113536 -0.16881296 1.2422556e-38
0.55468577 0.060457449 -0.16881204 1.2053773e-38
0.55517787 0.059743393 -0.16884474 1.1868662e-38
0.55529177 0.059089452 -0.16884369 1.205305e-38
0.55540574 0.058436178 -0.16884255 1.2329636e-38
0.55539364 0.05780232 -0.1688301 1.1961215e-38
0.5555076 0.057150107 -0.1688288 1.2236721e-38
0.55549544 0.05651677 -0.16881616 1.2513304e-38
0.55573553 0.055847645 -0.16882598 1.2234927e-38
0.55597562 0.055179704 -0.16883576 1.453979e-38
0.55634171 0.054495513 -0.16885674 2.3488451e-38
0.55670792 0.053813025 -0.16887766 2.3491638e-38
0.55707413 0.053132243 -0.16889854 2.3492713e-38
0.5574404 0.05245316 -0.16891937 2.3493433e-38
0.55793273 0.051759403 -0.16895145 2.3494512e-38
0.55829906 0.051083975 -0.16897216 2.3498831e-38
0.55866539 0.050410237 -0.16899285 2.3499551e-38
0.55903172 0.049738191 -0.16901347 2.3499192e-38
0.55939811 0.049067821 -0.16903403 2.3499913e-38
0.5597645 0.048399135 -0.16905457 2.3499913e-38
0.56013089 0.04773213 -0.16907503 2.3500629e-38
0.56049734 0.0470668 -0.16909546 2.3500994e-38
0.56086379 0.046403136 -0.16911583 2.3501715e-38
0.56110418 0.045755137 -0.16912478 2.3502441e-38
0.5613445 0.04510827 -0.16913369 2.3502799e-38
0.56158489 0.044462539 -0.16914254 2.3502799e-38
0.56182528 0.043817937 -0.16915132 2.3502809e-38
0.56206566 0.043174468 -0.16916005 2.3504265e-38
0.56217986 0.042544793 -0.16915731 2.3504265e-38
0.56229413 0.041915707 -0.16915452 2.3503906e-38
0.56253457 0.041275073 -0.16916305 2.3505348e-38
0.56264883 0.040647436 -0.1691601 2.3506429e-38
0.56276309 0.040020388 -0.16915709 2.3507873e-38
0.5628773 0.039393924 -0.169154 2.3509678e-38
0.56299156 0.038768031 -0.16915084 2.350968e-38
0.56310582 0.038142722 -0.16914761 2.3509695e-38
0.56322014 0.037517983 -0.16914432 2.3509696e-38
0.56320816 0.036904115 -0.16912949 2.3509709e-38
0.56332242 0.036280252 -0.16912603 2.3509716e-38
0.56343669 0.035656963 -0.1691225 2.3509716e-38
0.56342477 0.035043739 -0.16910742 2.3509719e-38
0.56341279 0.034430545 -0.16909228 2.3509736e-38
0.56352705 0.033808406 -0.16908851 2.3509736e-38
0.56364131 0.033186834 -0.16908467 2.2675289e-38
0.56362933 0.032574248 -0.16906928 2.2856068e-38
0.56361735 0.031961691 -0.16905379 2.2671677e-38
0.56360537 0.031349149 -0.16903822 2.2945727e-38
0.56359333 0.030736627 -0.16902256 2.2850655e-38
0.56358135 0.030124117 -0.16900681 2.1744307e-38
0.56369561 0.029504493 -0.1690025 2.211198e-38
0.56368357 0.028892269 -0.16898659 2.2019769e-38
0.56367159 0.02828005 -0.16897058 2.2480747e-38
0.56365955 0.027667835 -0.16895449 2.2387825e-38
0.56364751 0.027055619 -0.16893832 2.229563e-38
0.56363547 0.026443403 -0.16892205 2.2572217e-38
0.56349707 0.025836723 -0.16889416 2.2204137e-38
0.56348503 0.025224229 -0.16887769 1.9804562e-38
0.56347293 0.024611725 -0.16886117 1.9619814e-38
0.56346083 0.023999207 -0.16884455 2.1648115e-38
0.56344879 0.023386672 -0.16882785 2.1371528e-38
0.56331033 0.022778343 -0.16879945 2.1004182e-38
0.56317186 0.022169465 -0.16877094 2.1097825e-38
0.56315976 0.021556338 -0.16875397 2.2204173e-38
0.5631476 0.020943185 -0.16873689 2.2572605e-38
0.56300908 0.020333171 -0.16870809 2.2111627e-38
0.56287056 0.019722598 -0.16867919 2.3506827e-38
0.5628584 0.019108819 -0.16866183 2.3507557e-38
0.56271982 0.018497379 -0.16863275 2.3506836e-38
0.56258124 0.01788537 -0.16860354 2.3506839e-38
0.56244266 0.017272791 -0.16857423 2.3413555e-38
0.56230408 0.016659634 -0.16854483 2.3229163e-38
0.56203902 0.016047224 -0.16850363 2.3045125e-38
0.56190038 0.01543265 -0.16847402 2.3137321e-38
0.56176168 0.014817491 -0.16844429 2.2858569e-38
0.56149656 0.014202276 -0.16840275 2.2948598e-38
0.56135786 0.013585678 -0.16837279 2.2764207e-38
0.56109273 0.012968491 -0.16833103 2.2856012e-38
0.56082749 0.012350181 -0.16828912 2.2854917e-38
0.56043583 0.01173022 -0.16823539 2.2762722e-38
0.56017059 0.011109391 -0.16819324 2.2944962e-38
0.55977881 0.010486376 -0.16813922 2.2760571e-38
0.55938703 0.0098617002 -0.16808507 2.2850974e-38
0.55912167 0.0092369411 -0.16804254 2.2758778e-38
0.55860335 0.0086073428 -0.16797633 2.2850974e-38
0.55821145 0.0079776589 -0.16792177 2.3033921e-38
0.557693 0.0073439223 -0.16785526 2.3033189e-38
0.5571745 0.006707977 -0.16778859 2.2940993e-38
0.556656 0.0060698232 -0.16772178 2.2848072e-38
0.55601096 0.0054262816 -0.16764298 2.3216854e-38
0.55549228 0.0047834315 -0.16757584 2.3216857e-38
0.5549736 0.0041383603 -0.16750853 2.349276e-38
0.55445486 0.0034910662 -0.16744107 2.3493481e-38
0.55393606 0.0028415425 -0.16737345 2.3493133e-38
0.55354375 0.0021942833 -0.16731752 2.3492773e-38
0.5545063 0.060499974 -0.16816054 1.1870461e-38
0.55474633 0.059824638 -0.16817135 1.1869379e-38
0.55498636 0.05915051 -0.16818209 1.205305e-38
0.55522645 0.058477581 -0.16819276 1.205305e-38
0.55508822 0.057862122 -0.16816881 1.1868662e-38
0.55507612 0.057227772 -0.1681563 1.1868662e-38
0.55506402 0.056593549 -0.16814369 1.205305e-38
0.55505186 0.055959456 -0.16813099 1.2235645e-38
0.55554414 0.055254683 -0.16816439 1.2235645e-38
0.55591035 0.05456958 -0.16818619 1.9427215e-38
0.55627662 0.053886186 -0.16820793 2.3395493e-38
0.55664289 0.053204484 -0.16822962 2.3488049e-38
0.55713528 0.052507851 -0.16826282 2.3491985e-38
0.55762774 0.051813439 -0.16829599 2.3494142e-38
0.55799407 0.051137377 -0.16831753 2.349703e-38
0.55836046 0.050462987 -0.16833903 2.349703e-38
0.55872685 0.049790293 -0.16836047 2.3405555e-38
0.5590933 0.049119279 -0.16838185 2.3500253e-38
0.55945981 0.048449948 -0.16840319 2.3499893e-38
0.55982625 0.047782294 -0.16842449 2.350025e-38
0.56019276 0.047116321 -0.16844571 2.3500622e-38
0.56055927 0.046452019 -0.1684669 2.3502062e-38
0.56079966 0.045803379 -0.1684764 2.3316599e-38
0.56116623 0.045142144 -0.16849749 2.3502429e-38
0.56140661 0.044496048 -0.16850686 2.350315e-38
0.56164706 0.043851078 -0.1685162 2.3502812e-38
0.5618875 0.043207232 -0.16852547 2.3502833e-38
0.56212795 0.042564519 -0.16853467 2.3502833e-38
0.56224221 0.04193534 -0.16853216 2.350355e-38
0.56248266 0.041294605 -0.16854122 2.3505708e-38
0.56259692 0.040666871 -0.16853857 2.3506429e-38
0.56271124 0.040039718 -0.16853584 2.3507517e-38
0.56295168 0.039401803 -0.16854471 2.3509315e-38
0.56306601 0.038776081 -0.16854183 2.3509675e-38
0.56318033 0.038150936 -0.1685389 2.3509684e-38
0.56316835 0.037536934 -0.16852418 2.3509684e-38
0.56328267 0.036912668 -0.16852108 2.3509701e-38
0.56339693 0.036288984 -0.16851789 2.3509709e-38
0.56338501 0.03567563 -0.16850293 2.3509709e-38
0.56349927 0.03505281 -0.16849959 2.3509719e-38
0.56348735 0.034439791 -0.16848445 2.3509731e-38
0.56360161 0.033817824 -0.16848098 2.3509733e-38
0.56358963 0.033205129 -0.16846566 2.3509737e-38
0.56370395 0.032584008 -0.16846201 2.3509726e-38
0.56369197 0.031971622 -0.16844654 2.3509723e-38
0.56367999 0.031359259 -0.16843097 2.3509703e-38
0.56379426 0.03073925 -0.16842709 2.3509701e-38
0.56378227 0.030127179 -0.16841137 2.3508979e-38
0.56377029 0.029515121 -0.16839555 2.3506794e-38
0.56375825 0.028903073 -0.16837963 2.3133319e-38
0.56374621 0.02829103 -0.16836365 2.3409906e-38
0.56373417 0.027678991 -0.16834755 2.3132596e-38
0.56372219 0.02706695 -0.16833138 2.2671618e-38
0.56371009 0.026454909 -0.16831513 2.3222991e-38
0.56357175 0.025848413 -0.16828695 2.239322e-38
0.56355965 0.025236094 -0.1682705 2.303859e-38
0.56342125 0.024628788 -0.16824213 2.3407385e-38
0.56340915 0.024016183 -0.1682255 2.3506436e-38
0.56339705 0.023403561 -0.16820878 2.3505355e-38
0.56338495 0.02279092 -0.16819197 2.3509312e-38
0.56324649 0.022182224 -0.16816321 2.350968e-38
0.56310797 0.021572977 -0.16813433 2.350968e-38
0.56309587 0.020959737 -0.16811724 2.3509336e-38
0.56295735 0.02034964 -0.16808817 2.3508976e-38
0.56281877 0.019738985 -0.16805899 2.3507545e-38
0.56280661 0.019125119 -0.16804163 2.3508269e-38
0.56266803 0.018513598 -0.16801225 2.3508269e-38
0.56252939 0.017901508 -0.16798276 2.3415355e-38
0.5623908 0.017288847 -0.16795318 2.3138766e-38
0.56225216 0.01667561 -0.16792348 2.304657e-38
0.5619871 0.016063126 -0.16788174 2.2861813e-38
0.5618484 0.015448469 -0.16785182 2.3134787e-38
0.56158322 0.014834029 -0.16780983 2.2673809e-38
0.56144452 0.014217938 -0.1677797 2.3131908e-38
0.56117934 0.013601532 -0.1677375 2.2947517e-38
0.5609141 0.012984006 -0.16769516 2.3039694e-38
0.56052238 0.012365101 -0.1676407 2.2854208e-38
0.56013066 0.011744542 -0.16758612 2.2669817e-38
0.55973887 0.011122326 -0.16753139 2.2944606e-38
0.55934703 0.010498451 -0.16747652 2.2944606e-38
0.55895513 0.0098729096 -0.1674215 2.3036081e-38
0.55856323 0.0092457058 -0.16736637 2.2665857e-38
0.55817127 0.0086168302 -0.16731107 2.2573661e-38
0.55777931 0.0079862811 -0.16725564 2.2941347e-38
0.55713427 0.0073493174 -0.16717595 2.3033542e-38
0.55661565 0.0067122527 -0.16710816 2.3125012e-38
0.55597055 0.0060700746 -0.16702813 2.3032816e-38
0.55545181 0.0054283184 -0.16696002 2.3309403e-38
0.55493307 0.0047843466 -0.16689172 2.3492738e-38
0.55403471 0.0041270722 -0.16678698 2.3400542e-38
0.55288315 0.0034580717 -0.16665784 2.349241e-38
0.5544408 0.059886422 -0.16750786 1.1963011e-38
0.55468088 0.059211649 -0.16751915 1.1778261e-38
0.55441654 0.058614224 -0.16748327 1.1686067e-38
0.55415219 0.058015872 -0.16744728 1.1594231e-38
0.55388778 0.057416584 -0.16741118 1.177862e-38
0.55400175 0.056761649 -0.16741036 1.1777185e-38
0.55411571 0.056107361 -0.16740946 1.2051974e-38
0.55460805 0.055400599 -0.16744392 1.2512948e-38
0.55535269 0.054661185 -0.16750196 1.3064317e-38
0.55571902 0.053976618 -0.16752452 1.9058744e-38
0.55633759 0.053259917 -0.16757067 2.3487735e-38
0.55683011 0.052562617 -0.16760495 2.3489469e-38
0.5571965 0.051883943 -0.16762736 2.3400142e-38
0.55756289 0.051206954 -0.16764973 2.3492337e-38
0.55805546 0.050515808 -0.16768388 2.3495953e-38
0.55829579 0.04985806 -0.1676943 2.349631e-38
0.55866224 0.049186137 -0.16771649 2.3498443e-38
0.55902874 0.048515894 -0.16773865 2.3499163e-38
0.55939531 0.047847331 -0.16776073 2.3499522e-38
0.55976182 0.047180448 -0.16778277 2.3499897e-38
0.56012845 0.046515238 -0.16780476 2.3500617e-38
0.56049502 0.045851693 -0.1678267 2.3500622e-38
0.56086165 0.045189817 -0.16784859 2.3501345e-38
0.56122828 0.044529598 -0.16787042 2.3502785e-38
0.56146878 0.043884259 -0.1678803 2.350209e-38
0.56170923 0.043240048 -0.1678901 2.3502469e-38
0.56194973 0.042596966 -0.16789985 2.3502469e-38
0.56219023 0.041955002 -0.16790953 2.3502831e-38
0.56243074 0.041314159 -0.16791916 2.3505711e-38
0.56254506 0.040686324 -0.16791677 2.3506431e-38
0.56265938 0.040059078 -0.16791435 2.3507873e-38
0.56277364 0.039432418 -0.16791181 2.3508952e-38
0.56288797 0.038806334 -0.16790922 2.3509312e-38
0.56312853 0.038169995 -0.1679185 2.3509678e-38
0.56311655 0.037555903 -0.1679038 2.350968e-38
0.56323087 0.036931548 -0.16790095 2.3509695e-38
0.56334519 0.03630776 -0.16789806 2.3509706e-38
0.56345952 0.035684537 -0.16789508 2.3509706e-38
0.56344759 0.035071395 -0.16788004 2.350972e-38
0.56356186 0.034449037 -0.1678769 2.3509731e-38
0.56354994 0.033836227 -0.16786169 2.3509731e-38
0.56353796 0.033223439 -0.1678464 2.3417895e-38
0.56365228 0.032602221 -0.16784301 2.3326055e-38
0.5636403 0.03198975 -0.16782755 2.3142381e-38
0.56375462 0.031369362 -0.16782402 2.3234205e-38
0.56374264 0.030757193 -0.16780837 2.3234197e-38
0.5637306 0.030145032 -0.16779263 2.314236e-38
0.56371862 0.029532885 -0.16777682 2.341785e-38
0.56370658 0.028920747 -0.16776092 2.323272e-38
0.56369454 0.028308615 -0.16774492 2.2956133e-38
0.56368256 0.027696487 -0.16772883 2.3045086e-38
0.56367052 0.027084358 -0.16771266 2.3321673e-38
0.56365848 0.026472226 -0.16769639 2.3228035e-38
0.56364638 0.025860092 -0.16768003 2.3412427e-38
0.56350797 0.025253242 -0.16765149 2.3506063e-38
0.56349587 0.024640823 -0.16763495 2.3508232e-38
0.56335741 0.024033159 -0.16760619 2.3507878e-38
0.56334531 0.023420447 -0.16758947 2.3507878e-38
0.56333321 0.022807717 -0.16757265 2.3509318e-38
0.56319475 0.022198942 -0.1675436 2.3509685e-38
0.56318259 0.021585902 -0.16752659 2.3509687e-38
0.56304407 0.020976283 -0.16749735 2.3509698e-38
0.56290549 0.020366106 -0.167468 2.3509694e-38
0.56276691 0.019755367 -0.16743854 2.3416785e-38
0.56275475 0.019141411 -0.16742115 2.3416788e-38
0.56248969 0.0185322 -0.1673793 2.3416788e-38
0.56235111 0.017919764 -0.16734953 2.3232396e-38
0.56221247 0.017306756 -0.16731964 2.3231317e-38
0.56207377 0.016693175 -0.16728966 2.3139122e-38
0.56193507 0.016079016 -0.16725957 2.3045478e-38
0.56166995 0.015465347 -0.16721715 2.25845e-38
0.56140471 0.014850568 -0.16717461 2.2580884e-38
0.56113952 0.014234675 -0.16713195 2.3131895e-38
0.56087428 0.013617665 -0.16708916 2.3131895e-38
0.5604825 0.012999549 -0.167034 2.3131176e-38
0.56009072 0.012379781 -0.1669787 2.2853858e-38
0.55969888 0.011758361 -0.16692325 2.2669467e-38
0.55930698 0.011135283 -0.16686767 2.2944612e-38
0.5587886 0.010509501 -0.16679966 2.2852416e-38
0.55839664 0.0098828347 -0.1667438 2.3127561e-38
0.55800462 0.0092545003 -0.16668779 2.2941722e-38
0.5576126 0.0086244959 -0.16663164 2.2757331e-38
0.55709398 0.0079907207 -0.16656302 2.3125015e-38
0.55644882 0.0073523773 -0.16648193 2.3125015e-38
0.55593008 0.0067139217 -0.16641298 2.3217205e-38
0.5552848 0.0060703647 -0.16633154 2.321721e-38
0.5546394 0.0054240646 -0.16624995 2.3309406e-38
0.55386746 0.0047715912 -0.16615579 2.3492755e-38
0.55284232 0.0041084667 -0.16603671 2.3307643e-38
0.55453038 0.054153118 -0.16677825 1.3064676e-38
0.55565369 0.053366192 -0.16687411 1.2972481e-38
0.55627245 0.052650787 -0.16692157 2.3485581e-38
0.55676508 0.05195453 -0.1669569 2.3397276e-38
0.55725771 0.051260509 -0.16699217 2.3490192e-38
0.55749798 0.050600428 -0.16700318 2.349236e-38
0.55799067 0.049910314 -0.16703837 2.3493444e-38
0.55823106 0.04925308 -0.16704926 2.3494525e-38
0.55859756 0.048581932 -0.16707221 2.3496671e-38
0.55896419 0.04791246 -0.16709511 2.3497739e-38
0.55945694 0.047230117 -0.16713011 2.3498101e-38
0.55969739 0.046578538 -0.16714075 2.3499541e-38
0.56019032 0.045900065 -0.16717567 2.350026e-38
0.56055695 0.045237545 -0.16719835 2.3500979e-38
0.5609237 0.044576686 -0.16722099 2.3502059e-38
0.56116414 0.043930717 -0.16723141 2.3502075e-38
0.56140471 0.043285862 -0.16724177 2.3502802e-38
0.56164521 0.042642143 -0.16725205 2.3504243e-38
0.56188571 0.041999545 -0.16726227 2.3504618e-38
0.56212628 0.041358069 -0.16727243 2.3504985e-38
0.56236684 0.040717706 -0.16728254 2.3505706e-38
0.56260747 0.040078457 -0.16729257 2.3506429e-38
0.56272179 0.039451703 -0.16729033 2.3508229e-38
0.56283611 0.038825519 -0.16728801 2.3508589e-38
0.56295043 0.03819992 -0.16728561 2.3509675e-38
0.56306475 0.037574891 -0.16728315 2.3509675e-38
0.56317908 0.036950435 -0.16728058 2.3509692e-38
0.56329346 0.03632655 -0.16727796 2.3509706e-38
0.56340778 0.035703231 -0.16727526 2.3509706e-38
0.56339586 0.035090003 -0.16726021 2.3509719e-38
0.56351018 0.034467544 -0.16725737 2.3509727e-38
0.5634982 0.033854641 -0.16724215 2.3509727e-38
0.56361252 0.033233039 -0.16723913 2.3509727e-38
0.56360054 0.032620452 -0.16722375 2.341789e-38
0.56371492 0.031999685 -0.16722058 2.341789e-38
0.56370294 0.031387404 -0.16720502 2.3417885e-38
0.5636909 0.030775141 -0.16718939 2.3234203e-38
0.56367892 0.030162893 -0.16717365 2.3234203e-38
0.56366694 0.029550657 -0.16715783 2.3142349e-38
0.5636549 0.028938429 -0.16714191 2.3142333e-38
0.56364286 0.028326208 -0.16712591 2.3142333e-38
0.56363082 0.027713988 -0.16710983 2.2957212e-38
0.56361878 0.02710177 -0.16709365 2.2680625e-38
0.56360674 0.026489548 -0.16707738 2.3231275e-38
0.5635947 0.025877323 -0.16706102 2.3230556e-38
0.56358266 0.02526509 -0.16704457 2.3322752e-38
0.56344414 0.024657885 -0.16701564 2.3508233e-38
0.56330568 0.024050137 -0.16698663 2.3508239e-38
0.56329358 0.023437336 -0.1669699 2.3508239e-38
0.56328148 0.022824517 -0.16695306 2.3508964e-38
0.56314296 0.022215657 -0.16692375 2.3509692e-38
0.56300443 0.021606246 -0.16689432 2.3509692e-38
0.56299227 0.020992825 -0.1668772 2.3509695e-38
0.56285369 0.020382566 -0.16684756 2.3417858e-38
0.56271505 0.019771745 -0.16681783 2.3233467e-38
0.56257647 0.019160362 -0.16678798 2.3141274e-38
0.56243783 0.018548412 -0.16675803 2.323347e-38
0.56217271 0.017938027 -0.1667155 2.3232393e-38
0.56203401 0.017324673 -0.16668534 2.2955807e-38
0.56189531 0.016710743 -0.16665506 2.2955807e-38
0.56163013 0.016097579 -0.16661218 2.3045476e-38
0.56136489 0.015483308 -0.1665692 2.2492302e-38
0.56109965 0.014867923 -0.16652609 2.2581237e-38
0.56083441 0.014251425 -0.16648285 2.2856026e-38
0.56044257 0.013634094 -0.16642697 2.2856026e-38
0.56005073 0.013015116 -0.16637097 2.2670195e-38
0.55965883 0.012394487 -0.16631481 2.2853861e-38
0.55926692 0.011772201 -0.16625853 2.2669469e-38
0.55874842 0.011147488 -0.16618954 2.3036087e-38
0.55822992 0.010520584 -0.16612041 2.3036087e-38
0.55783784 0.0098927896 -0.16606368 2.3035365e-38
0.55744576 0.0092633273 -0.16600682 2.2942444e-38
0.55692708 0.0086303642 -0.16593722 2.3034639e-38
0.55640841 0.0079952022 -0.16586746 2.284988e-38
0.55576307 0.0073554753 -0.16578496 2.2757684e-38
0.55511767 0.0067130099 -0.16570227 2.2941703e-38
0.55447221 0.0060678069 -0.16561942 2.3309426e-38
0.55357361 0.0054135513 -0.16551115 2.3309426e-38
0.55267489 0.0047554909 -0.16540267 2.3216529e-38
0.55558842 0.052755736 -0.16622339 1.8320146e-38
0.55633348 0.052025225 -0.16628453 2.27505e-38
0.55669999 0.05134641 -0.16630852 2.3488785e-38
0.55719274 0.050653417 -0.16634484 2.3490565e-38
0.55743307 0.049993861 -0.16635633 2.3493797e-38
0.55779964 0.04932012 -0.16638015 2.3494518e-38
0.55816627 0.048648056 -0.16640392 2.3496314e-38
0.55853289 0.047977671 -0.16642763 2.3497392e-38
0.55889958 0.047308963 -0.16645128 2.3498112e-38
0.55926627 0.046641927 -0.16647488 2.3499184e-38
0.55963296 0.045976561 -0.16649844 2.3500257e-38
0.56012595 0.045299102 -0.16653436 2.3500617e-38
0.56036645 0.044650834 -0.16654536 2.3500978e-38
0.5608595 0.043977227 -0.1665812 2.3502066e-38
0.56110001 0.043331746 -0.16659208 2.3502799e-38
0.56134057 0.042687383 -0.16660292 2.350388e-38
0.56158113 0.042044148 -0.16661368 2.3504977e-38
0.561948 0.041389864 -0.16663684 2.3504629e-38
0.56206232 0.040761035 -0.16663502 2.350535e-38
0.56230295 0.04012116 -0.16664557 2.3506429e-38
0.56254357 0.039482385 -0.16665609 2.3507147e-38
0.56265789 0.038855843 -0.16665404 2.3507147e-38
0.56277227 0.038229875 -0.16665192 2.3509671e-38
0.56301296 0.037593901 -0.16666222 2.3509673e-38
0.56300098 0.036979668 -0.16664743 2.3509682e-38
0.56324166 0.036345363 -0.1666576 2.3509701e-38
0.56322968 0.03573174 -0.16664265 2.3509701e-38
0.56334406 0.035108622 -0.16664015 2.350971e-38
0.56345844 0.034486067 -0.16663755 2.3509722e-38
0.56344646 0.033873074 -0.16662236 2.3509722e-38
0.56356084 0.033251371 -0.1666196 2.3509727e-38
0.56354886 0.032638695 -0.16660422 2.3509724e-38
0.56353682 0.032026038 -0.16658875 2.3509724e-38
0.5636512 0.031405456 -0.16658576 2.3417885e-38
0.56363922 0.030793104 -0.16657013 2.3234203e-38
0.56362724 0.030180765 -0.16655439 2.3234203e-38
0.5636152 0.029568439 -0.16653857 2.3142357e-38
0.56360316 0.028956117 -0.16652267 2.3050512e-38
0.56359118 0.028343806 -0.16650666 2.2958675e-38
0.56357914 0.027731497 -0.16649057 2.3049778e-38
0.5635671 0.027119188 -0.16647439 2.2680995e-38
0.56355506 0.026506875 -0.16645811 2.2956486e-38
0.56341654 0.025900133 -0.16642912 2.3048316e-38
0.5634045 0.025287546 -0.16641264 2.3324903e-38
0.5633924 0.024674946 -0.16639608 2.3232707e-38
0.56325388 0.024067117 -0.16636679 2.3508595e-38
0.56324178 0.023454225 -0.16635005 2.3509315e-38
0.56310326 0.022845568 -0.16632055 2.3509332e-38
0.56309116 0.02223237 -0.1663036 2.3509698e-38
0.56295258 0.021622876 -0.16627389 2.3509698e-38
0.562814 0.021012828 -0.16624409 2.3417861e-38
0.56267536 0.020402219 -0.16621415 2.3141274e-38
0.56253672 0.019791052 -0.16618413 2.3325663e-38
0.56239808 0.01917932 -0.166154 2.3417858e-38
0.56225938 0.018567022 -0.16612375 2.3325663e-38
0.56199425 0.017956298 -0.16608068 2.3325663e-38
0.56185555 0.017342594 -0.16605021 2.2862885e-38
0.56159031 0.01672993 -0.16600691 2.2586298e-38
0.56132507 0.016116161 -0.16596346 2.2675977e-38
0.56105983 0.015501282 -0.16591991 2.2491586e-38
0.56079447 0.014885292 -0.16587621 2.2858552e-38
0.56040263 0.014268745 -0.16581963 2.2949303e-38
0.56001073 0.013650551 -0.16576292 2.2949303e-38
0.55961883 0.013030709 -0.16570605 2.2947504e-38
0.55910033 0.012408979 -0.16563627 2.2853142e-38
0.55858183 0.011785064 -0.16556631 2.2760946e-38
0.55818975 0.011159729 -0.16550902 2.3036084e-38
0.55767113 0.010531703 -0.16543876 2.2943889e-38
0.55715239 0.0099014826 -0.16536833 2.3034639e-38
0.55663365 0.009269068 -0.16529775 2.2942441e-38
0.55611485 0.0086344536 -0.16522701 2.3219028e-38
0.55546945 0.0079955496 -0.16514325 2.3034274e-38
0.55482399 0.0073539107 -0.16505933 2.3034274e-38
0.55417842 0.0067095328 -0.16497521 2.3126469e-38
0.55353284 0.0060624131 -0.16489093 2.2849882e-38
0.552634 0.0054062568 -0.16478069 2.3216877e-38
0.55452543 0.052910857 -0.16548437 1.3618917e-38
0.55564928 0.052128837 -0.16558501 1.869213e-38
0.55626827 0.051416278 -0.16563511 2.3488464e-38
0.5566349 0.050738249 -0.16565984 2.3488765e-38
0.55687523 0.050077524 -0.16567187 2.3491994e-38
0.55724186 0.049402598 -0.1656965 2.3493074e-38
0.55760854 0.048729356 -0.16572107 2.3495588e-38
0.55797523 0.048057795 -0.16574559 2.3495951e-38
0.55834192 0.047387909 -0.16577005 2.3496671e-38
0.55883491 0.046705402 -0.16580714 2.3497742e-38
0.55920166 0.046039123 -0.16583149 2.350025e-38
0.55956846 0.045374516 -0.1658558 2.350025e-38
0.55993527 0.044711564 -0.16588004 2.350025e-38
0.56030208 0.044050291 -0.16590422 2.3500976e-38
0.56066895 0.043390661 -0.16592836 2.3500616e-38
0.56103581 0.042732686 -0.16595244 2.3503515e-38
0.56127644 0.042088814 -0.16596375 2.3504251e-38
0.56151706 0.041446064 -0.16597497 2.3504971e-38
0.56175768 0.040804435 -0.16598615 2.3505699e-38
0.56199837 0.040163912 -0.16599725 2.3506061e-38
0.56223899 0.039524507 -0.16600829 2.3507142e-38
0.56235337 0.038897328 -0.16600652 2.3508221e-38
0.56259406 0.038259879 -0.16601741 2.3509661e-38
0.56270844 0.037634123 -0.16601549 2.3509663e-38
0.56294912 0.036998611 -0.16602625 2.3509674e-38
0.5630635 0.036374256 -0.16602418 2.3509695e-38
0.56317788 0.035750479 -0.16602202 2.3509695e-38
0.5631659 0.0351368 -0.16600698 2.3509703e-38
0.56328034 0.034513883 -0.16600466 2.3509713e-38
0.56339467 0.033891521 -0.16600227 2.3509713e-38
0.56338269 0.033278465 -0.16598698 2.3509717e-38
0.56349707 0.032656949 -0.16598442 2.3417885e-38
0.56348509 0.032044206 -0.16596895 2.3417885e-38
0.56347311 0.031431481 -0.1659534 2.3234208e-38
0.56358749 0.030811077 -0.1659506 2.3234205e-38
0.56357551 0.030198647 -0.16593486 2.3234205e-38
0.56356347 0.029586228 -0.16591905 2.3142357e-38
0.56355143 0.028973818 -0.16590314 2.3050512e-38
0.56353945 0.028361412 -0.16588713 2.2866479e-38
0.56352741 0.027749011 -0.16587102 2.2773191e-38
0.56351537 0.027136611 -0.16585484 2.2680995e-38
0.56337684 0.026530053 -0.16582566 2.2956837e-38
0.5633648 0.025917381 -0.1658093 2.3048311e-38
0.5633527 0.025304701 -0.16579282 2.3324897e-38
0.56321418 0.024697063 -0.16576335 2.3324897e-38
0.56320208 0.024084097 -0.16574669 2.3508958e-38
0.56306356 0.023475638 -0.16571701 2.3509318e-38
0.56292498 0.022866633 -0.16568722 2.3508978e-38
0.56291288 0.022253079 -0.16567026 2.3509341e-38
0.56277424 0.021643236 -0.16564026 2.3509701e-38
0.56263566 0.021032838 -0.16561016 2.3417861e-38
0.56237048 0.020425087 -0.165567 2.3325665e-38
0.56235832 0.019810366 -0.16554964 2.3325663e-38
0.5620932 0.019200962 -0.16550624 2.3417858e-38
0.56182796 0.018590465 -0.16546272 2.3325663e-38
0.56168926 0.01797672 -0.16543207 2.3233467e-38
0.56142396 0.01736429 -0.1653883 2.2861087e-38
0.56115872 0.016750755 -0.1653444 2.2676696e-38
0.56089342 0.016136114 -0.1653004 2.2859287e-38
0.56062806 0.015520365 -0.16525625 2.2674895e-38
0.56023616 0.014904331 -0.16519895 2.2858198e-38
0.55997074 0.014286092 -0.16515456 2.304042e-38
0.55945224 0.013667332 -0.16508396 2.2948224e-38
0.55906022 0.013046361 -0.16502623 2.3038981e-38
0.5585416 0.012423507 -0.16495532 2.2762394e-38
0.55802292 0.01179847 -0.16488422 2.2668751e-38
0.55750424 0.011171245 -0.164813 2.2943886e-38
0.5568589 0.010540808 -0.16472851 2.2943886e-38
0.5563401 0.0099089341 -0.16465694 2.2942444e-38
0.55582124 0.0092748664 -0.16458522 2.2942444e-38
0.55517572 0.0086367792 -0.16450021 2.2942444e-38
0.55453014 0.0079959622 -0.16441503 2.2941725e-38
0.55401111 0.0073547554 -0.16434281 2.3033921e-38
0.55323881 0.0067061177 -0.16424415 2.312576e-38
0.55246645 0.0060542077 -0.16414528 2.2941369e-38
0.55118763 0.005386468 -0.16399361 2.3032491e-38
0.55434579 0.05294935 -0.1648311 1.2053409e-38
0.55534357 0.052183308 -0.16492127 1.2603704e-38
0.5557102 0.051502403 -0.16494688 1.4355402e-38
0.55607682 0.050823189 -0.16497242 2.3487007e-38
0.55644351 0.050145663 -0.16499794 2.3489841e-38
0.5566839 0.049485188 -0.16501045 2.3489841e-38
0.55692434 0.048825867 -0.16502289 2.3492713e-38
0.55729109 0.048152857 -0.16504821 2.3401952e-38
0.55778408 0.04746696 -0.1650864 2.3495948e-38
0.55815089 0.046797577 -0.16511162 2.3495941e-38
0.55864394 0.046115812 -0.16514972 2.349844e-38
0.5590108 0.045450024 -0.16517481 2.349916e-38
0.55950391 0.04477239 -0.16521282 2.3500243e-38
0.55974454 0.044123441 -0.16522485 2.3500606e-38
0.56023771 0.043449655 -0.16526276 2.3500966e-38
0.56047833 0.042803489 -0.16527465 2.3502435e-38
0.56071901 0.042158447 -0.16528648 2.3503169e-38
0.56108594 0.041502342 -0.16531125 2.3503889e-38
0.56132662 0.040859807 -0.16532294 2.3504971e-38
0.56156731 0.040218383 -0.16533458 2.3506412e-38
0.56180799 0.03957808 -0.16534615 2.3507492e-38
0.56204867 0.038938876 -0.16535765 2.3508577e-38
0.56216305 0.038311649 -0.16535607 2.3509659e-38
0.5624038 0.037674397 -0.16536742 2.3509659e-38
0.56264454 0.037038248 -0.16537872 2.3509668e-38
0.56275892 0.036413271 -0.1653769 2.3509695e-38
0.5628733 0.03578886 -0.16537501 2.3509695e-38
0.56298774 0.035165012 -0.16537304 2.3509698e-38
0.56310213 0.03454173 -0.16537099 2.3509703e-38
0.56321651 0.033919003 -0.16536885 2.3509703e-38
0.56333089 0.033296835 -0.16536665 2.3509709e-38
0.56331891 0.032683711 -0.16535126 2.3509716e-38
0.56330693 0.032070611 -0.16533579 2.3417879e-38
0.56329495 0.031457528 -0.16532025 2.3417882e-38
0.56340933 0.030836763 -0.1653177 2.3417879e-38
0.56339729 0.030223973 -0.16530196 2.3234205e-38
0.56338531 0.029611198 -0.16528614 2.314236e-38
0.56337327 0.028998431 -0.16527021 2.3050512e-38
0.56336123 0.028385673 -0.16525419 2.2866479e-38
0.56334919 0.027772915 -0.16523808 2.2681348e-38
0.56321067 0.027166273 -0.16520873 2.2681348e-38
0.56319863 0.026553249 -0.16519244 2.3049738e-38
0.56318653 0.025940221 -0.16517605 2.2957543e-38
0.56317449 0.025327185 -0.16515955 2.323413e-38
0.56316239 0.024714136 -0.16514298 2.3509645e-38
0.56302387 0.024105873 -0.16511312 2.3508968e-38
0.56288522 0.023497066 -0.16508316 2.3508968e-38
0.56274664 0.02288771 -0.16505308 2.3509338e-38
0.562608 0.022277808 -0.16502291 2.3509336e-38
0.56246936 0.02166735 -0.16499262 2.3509698e-38
0.56233072 0.021056339 -0.16496222 2.3417861e-38
0.56206554 0.020447981 -0.16491848 2.3417861e-38
0.56192684 0.019835586 -0.16488786 2.3325663e-38
0.5616616 0.019225311 -0.16484389 2.3417855e-38
0.56152284 0.018611522 -0.16481304 2.3233464e-38
0.56125754 0.017999319 -0.16476883 2.3049073e-38
0.56099224 0.017386017 -0.1647245 2.2861084e-38
0.56072694 0.016771611 -0.16468003 2.2768889e-38
0.56046152 0.016156098 -0.16463543 2.2859642e-38
0.56019616 0.015539478 -0.16459073 2.2675251e-38
0.55980414 0.014922579 -0.16453257 2.2581965e-38
0.55941212 0.014304036 -0.16447429 2.3040414e-38
0.5588935 0.013684153 -0.16440256 2.2671632e-38
0.55850142 0.013062051 -0.16434398 2.2762388e-38
0.55798268 0.012438072 -0.16427194 2.2762388e-38
0.55733734 0.011811422 -0.16418639 2.2576555e-38
0.55681849 0.011182808 -0.16411401 2.3035368e-38
0.55617303 0.010550987 -0.16402812 2.3035368e-38
0.55552751 0.0099164434 -0.16394207 2.2942091e-38
0.55488193 0.0092791757 -0.16385582 2.2942091e-38
0.55423623 0.0086391745 -0.16376939 2.312576e-38
0.55371714 0.0079985186 -0.16369618 2.2941725e-38
0.55307138 0.0073533147 -0.1636094 2.2941725e-38
0.5524255 0.0067053693 -0.16352244 2.3124681e-38
0.55152637 0.0060489457 -0.16340847 2.3032486e-38
0.55403984 0.0530046 -0.16416383 1.1961215e-38
0.55529028 0.052204993 -0.16428252 1.2604063e-38
0.55540442 0.051556297 -0.16428261 1.2050898e-38
0.55564487 0.050892331 -0.16429581 1.5186578e-38
0.55601156 0.050213896 -0.16432211 2.3488778e-38
0.55612576 0.049567882 -0.16432197 2.3396222e-38
0.55636621 0.048907388 -0.16433495 2.3490915e-38
0.55660665 0.048248049 -0.16434787 2.3493785e-38
0.55709976 0.047560699 -0.16438712 2.3495225e-38
0.55746657 0.046889864 -0.16441314 2.3495224e-38
0.55795974 0.046206646 -0.16445231 2.3498073e-38
0.5584529 0.045525637 -0.16449143 2.3498433e-38
0.55894613 0.04484681 -0.1645305 2.3498782e-38
0.55931306 0.044183433 -0.16455631 2.3315116e-38
0.55968004 0.043521721 -0.16458203 2.3501308e-38
0.55992067 0.042874385 -0.16459446 2.3500638e-38
0.56016129 0.042228185 -0.16460681 2.3502809e-38
0.56052834 0.041570894 -0.16463235 2.3503169e-38
0.56076902 0.040927194 -0.16464458 2.3504241e-38
0.56113607 0.040272932 -0.16467002 2.3506042e-38
0.56137681 0.039631717 -0.16468213 2.3507122e-38
0.56161755 0.038991615 -0.16469416 2.3507848e-38
0.56173193 0.038363498 -0.16469282 2.3508934e-38
0.56197268 0.037725341 -0.16470471 2.3509294e-38
0.56221348 0.037088286 -0.16471654 2.3509661e-38
0.56232786 0.036462415 -0.16471498 2.3509695e-38
0.5625686 0.03582729 -0.16472666 2.3509698e-38
0.56268305 0.035202816 -0.16472495 2.3509703e-38
0.56279743 0.034578901 -0.16472316 2.3417868e-38
0.56291187 0.033955544 -0.16472128 2.3417868e-38
0.56302631 0.033332743 -0.16471934 2.3509706e-38
0.56301427 0.032719001 -0.16470395 2.350971e-38
0.56300229 0.032105278 -0.16468847 2.350971e-38
0.56311667 0.031483602 -0.16468626 2.3509716e-38
0.56310469 0.030870179 -0.1646706 2.3234205e-38
0.56309265 0.030256769 -0.16465485 2.3234205e-38
0.56308061 0.029643375 -0.16463901 2.314236e-38
0.56306857 0.029029984 -0.16462308 2.3050512e-38
0.56305653 0.028416602 -0.16460705 2.2589893e-38
0.56304449 0.027803224 -0.16459092 2.2773538e-38
0.56303239 0.027189845 -0.16457471 2.2681343e-38
0.56302035 0.026576463 -0.1645584 2.3049385e-38
0.56288177 0.025968675 -0.16452856 2.3140859e-38
0.56286967 0.025355015 -0.16451205 2.3140859e-38
0.56285757 0.024741348 -0.16449545 2.3048666e-38
0.56271899 0.02413247 -0.16446531 2.3508605e-38
0.56258035 0.023523048 -0.16443504 2.3508605e-38
0.56244171 0.02291308 -0.16440469 2.3325295e-38
0.56230307 0.022302561 -0.1643742 2.3417488e-38
0.56203789 0.021695236 -0.16433015 2.3509685e-38
0.56189919 0.021083346 -0.16429946 2.3509685e-38
0.56176049 0.020470897 -0.16426864 2.3509685e-38
0.56149518 0.019860843 -0.16422422 2.3326013e-38
0.56122988 0.019249696 -0.16417967 2.3049426e-38
0.56096458 0.018637454 -0.16413499 2.3049426e-38
0.56069922 0.018024115 -0.1640902 2.3325295e-38
0.5604338 0.017409677 -0.16404527 2.2772122e-38
0.56016845 0.016794132 -0.16400023 2.2768526e-38
0.55990297 0.016177483 -0.16395505 2.3043662e-38
0.55963749 0.015559725 -0.16390975 2.2582684e-38
0.55924541 0.014941694 -0.16385075 2.2765262e-38
0.55885333 0.014322021 -0.16379161 2.3132243e-38
0.55833459 0.013701013 -0.16371876 2.2855656e-38
0.55781579 0.013077826 -0.16364573 2.2946054e-38
0.55729693 0.012452458 -0.16357255 2.2485075e-38
0.55665147 0.011824425 -0.1634856 2.3036084e-38
0.5560059 0.011193676 -0.16339849 2.2942088e-38
0.55536026 0.010560204 -0.16331117 2.2942088e-38
0.55471462 0.0099240094 -0.16322368 2.2849882e-38
0.55406886 0.0092850905 -0.16313604 2.2665491e-38
0.55342305 0.00864344 -0.16304819 2.2847719e-38
0.55290383 0.0080011226 -0.16297382 2.3216501e-38
0.55238456 0.0073565994 -0.16289929 2.3124306e-38
0.5516119 0.0067046704 -0.16279724 2.3216144e-38
0.55109251 0.0060551935 -0.16272236 2.3216144e-38
0.54968649 0.0053816107 -0.16255151 2.321509e-38
0.5546177 0.052942973 -0.16358928 1.2052333e-38
0.555237 0.052226722 -0.16364348 1.2236721e-38
0.5553512 0.051577918 -0.16364387 1.2236721e-38
0.55546534 0.050929748 -0.16364418 1.2788452e-38
0.55545318 0.050297864 -0.16363093 2.2288089e-38
0.55556738 0.049650688 -0.16363108 2.3487353e-38
0.55568153 0.049004145 -0.16363111 2.3212879e-38
0.55592203 0.048343364 -0.16364457 2.3493059e-38
0.55628884 0.047669142 -0.16367142 2.3493779e-38
0.55678201 0.046982277 -0.1637117 2.3495218e-38
0.5574016 0.046283551 -0.16376543 2.3496631e-38
0.55789483 0.045601342 -0.16380562 2.3497351e-38
0.55838811 0.044921331 -0.16384576 2.3497341e-38
0.5587551 0.04425678 -0.16387235 2.3498429e-38
0.55912209 0.043593884 -0.16389889 2.3500229e-38
0.55948913 0.042932648 -0.16392535 2.3500997e-38
0.55972981 0.042285532 -0.16393824 2.3502086e-38
0.5599705 0.041639544 -0.16395105 2.3502806e-38
0.5603376 0.040982723 -0.16397735 2.3502792e-38
0.56057835 0.040339228 -0.16399005 2.350495e-38
0.56081909 0.03969685 -0.16400267 2.3506031e-38
0.56105983 0.039055578 -0.16401522 2.3506761e-38
0.56130064 0.038415413 -0.16402771 2.3508577e-38
0.56154138 0.037776355 -0.16404013 2.3415301e-38
0.56165576 0.037148751 -0.1640389 2.3509661e-38
0.56189662 0.03651163 -0.16405116 2.3509692e-38
0.562011 0.035885431 -0.16404979 2.3509695e-38
0.56225187 0.035250232 -0.16406192 2.3509703e-38
0.56236625 0.034625422 -0.16406038 2.3417868e-38
0.56248063 0.034001172 -0.16405876 2.3417868e-38
0.56259507 0.033377476 -0.16405706 2.3417868e-38
0.56270951 0.032754336 -0.16405529 2.3509706e-38
0.56269747 0.03213999 -0.16403979 2.3509706e-38
0.56268549 0.031525664 -0.1640242 2.3417874e-38
0.56267345 0.030911358 -0.16400853 2.32342e-38
0.56266141 0.03029706 -0.16399276 2.3142363e-38
0.56264937 0.029682776 -0.16397689 2.3234194e-38
0.56276375 0.029061576 -0.1639746 2.3234194e-38
0.56275171 0.028447572 -0.16395855 2.2957596e-38
0.56273961 0.02783357 -0.16394241 2.2773541e-38
0.56260109 0.027225701 -0.16391249 2.2681345e-38
0.56258899 0.026611434 -0.16389616 2.3049035e-38
0.56257689 0.025997162 -0.16387972 2.3140506e-38
0.56256479 0.025382882 -0.16386318 2.3140506e-38
0.56242615 0.024773667 -0.16383286 2.2863922e-38
0.56228751 0.024163909 -0.1638024 2.3508602e-38
0.56214881 0.023553608 -0.16377185 2.3508602e-38
0.56201017 0.022942757 -0.1637412 2.3509684e-38
0.56174493 0.022335378 -0.16369669 2.3509684e-38
0.56160623 0.021723162 -0.1636658 2.3326013e-38
0.56134093 0.021113882 -0.16362104 2.341785e-38
0.56120217 0.020500291 -0.16358991 2.341785e-38
0.56093687 0.019889098 -0.16354492 2.332601e-38
0.56067145 0.019276815 -0.16349979 2.3048703e-38
0.56040609 0.018663436 -0.16345453 2.3048703e-38
0.56014067 0.018048959 -0.16340916 2.3416412e-38
0.55987519 0.017433381 -0.16336365 2.2586651e-38
0.55960971 0.0168167 -0.16331802 2.2676327e-38
0.55934423 0.016198911 -0.16327226 2.3042565e-38
0.55895209 0.015581125 -0.16321254 2.2765978e-38
0.55855989 0.014961699 -0.16315268 2.285708e-38
0.5581677 0.014340629 -0.16309267 2.3040034e-38
0.55764884 0.013718231 -0.16301867 2.2947839e-38
0.55700332 0.013093708 -0.16293067 2.3037881e-38
0.55648434 0.012466684 -0.16285634 2.2576902e-38
0.5558387 0.011837002 -0.16276798 2.3035716e-38
0.55519301 0.011204599 -0.16267945 2.2942078e-38
0.55454725 0.010569479 -0.16259073 2.3034274e-38
0.55390143 0.0099316351 -0.16250184 2.3033192e-38
0.55338216 0.0092925932 -0.16242665 2.2848801e-38
0.55273622 0.0086495569 -0.16233741 2.2755879e-38
0.55221689 0.0080058444 -0.16226189 2.3032466e-38
0.55169749 0.0073599266 -0.16218621 2.3124302e-38
0.55105138 0.0067092055 -0.16209643 2.3123946e-38
0.55065846 0.0060614543 -0.16203435 2.3216141e-38
0.54975891 0.005399528 -0.1619163 2.330656e-38
0.55431169 0.052998316 -0.16292116 1.2052333e-38
0.55531001 0.052232035 -0.16301785 1.1960138e-38
0.55517155 0.051615767 -0.16299112 1.2144527e-38
0.55528575 0.050967224 -0.16299173 1.278881e-38
0.55502093 0.05036629 -0.16295105 1.2513304e-38
0.55488247 0.049748998 -0.16292401 1.7123047e-38
0.55499661 0.049101014 -0.16292432 2.3487336e-38
0.55511081 0.048453659 -0.16292456 2.3491988e-38
0.55547768 0.047777727 -0.1629522 2.3493057e-38
0.55597091 0.047089141 -0.16299355 2.3401942e-38
0.5565905 0.046388686 -0.1630486 2.3495569e-38
0.55708385 0.045704763 -0.16308984 2.3495569e-38
0.55757719 0.045023039 -0.16313104 2.3496278e-38
0.5580706 0.044343498 -0.1631722 2.349772e-38
0.55856401 0.043666147 -0.16321331 2.349916e-38
0.55893111 0.043003727 -0.16324058 2.349954e-38
0.5591718 0.042355444 -0.16325398 2.3501356e-38
0.5595389 0.041696064 -0.16328114 2.3500636e-38
0.55977964 0.041050285 -0.16329443 2.3502421e-38
0.56002039 0.040405624 -0.16330764 2.3504219e-38
0.56026119 0.039762072 -0.16332078 2.3504939e-38
0.56050193 0.039119631 -0.16333386 2.3504957e-38
0.56074274 0.038478293 -0.16334687 2.3507132e-38
0.56085712 0.0378487 -0.16334596 2.3506052e-38
0.56109792 0.037209306 -0.16335882 2.3508571e-38
0.56133878 0.036571011 -0.16337162 2.3509682e-38
0.56145316 0.035943653 -0.16337048 2.3509687e-38
0.56169403 0.035307281 -0.16338314 2.3509703e-38
0.56193489 0.034672007 -0.16339572 2.3417865e-38
0.56204933 0.034046859 -0.16339435 2.3417865e-38
0.56216377 0.033422269 -0.1633929 2.3417865e-38
0.56215173 0.032806747 -0.16337748 2.3417865e-38
0.56226611 0.032183003 -0.16337587 2.3509703e-38
0.56225407 0.031567786 -0.16336027 2.3509706e-38
0.56224203 0.030952588 -0.16334458 2.3417865e-38
0.56222999 0.030337406 -0.16332878 2.3326028e-38
0.56221789 0.029722236 -0.16331288 2.3326025e-38
0.56233233 0.029100141 -0.16331084 2.3326025e-38
0.56219375 0.028491914 -0.16328084 2.2957596e-38
0.56218165 0.027876761 -0.16326466 2.286574e-38
0.56216955 0.027261609 -0.16324839 2.2773544e-38
0.56215745 0.026646456 -0.16323201 2.2956486e-38
0.56214535 0.026031293 -0.16321556 2.3049035e-38
0.56200671 0.02542147 -0.16318505 2.3141231e-38
0.56199455 0.024806028 -0.16316839 2.3049032e-38
0.56185591 0.02419539 -0.16313764 2.3508602e-38
0.56171715 0.023584209 -0.16310678 2.3508962e-38
0.56145191 0.022976769 -0.16306183 2.3509687e-38
0.56131315 0.022364227 -0.16303073 2.3509687e-38
0.56117439 0.021751132 -0.16299954 2.3417853e-38
0.56090909 0.021140976 -0.16295423 2.3417853e-38
0.56064367 0.020529736 -0.16290878 2.3417853e-38
0.56037825 0.019917406 -0.16286319 2.3233817e-38
0.56011283 0.019303983 -0.16281748 2.295651e-38
0.55984741 0.018689465 -0.16277164 2.3048706e-38
0.55958188 0.018073849 -0.16272569 2.3416409e-38
0.5593164 0.017457131 -0.16267958 2.2586649e-38
0.5590508 0.016839312 -0.16263336 2.2675246e-38
0.55878526 0.016220383 -0.16258702 2.276561e-38
0.558393 0.015601465 -0.16252644 2.2212436e-38
0.55787414 0.01498176 -0.16245164 2.2764148e-38
0.55748183 0.014359293 -0.16239077 2.3040735e-38
0.55696285 0.013735501 -0.16231565 2.2855268e-38
0.55631721 0.013109594 -0.16222623 2.2945315e-38
0.55567145 0.012480973 -0.16213663 2.2760924e-38
0.5550257 0.011849639 -0.16204686 2.2851678e-38
0.55437982 0.011215587 -0.16195691 2.2667286e-38
0.55373394 0.010578815 -0.16186678 2.3034624e-38
0.55321461 0.0099405758 -0.16179062 2.2941349e-38
0.55256855 0.0092986152 -0.16170013 2.2849154e-38
0.55217582 0.0086575048 -0.16163783 2.3032466e-38
0.55165637 0.0080126626 -0.16156118 2.3032466e-38
0.55113685 0.0073656132 -0.16148436 2.3216497e-38
0.55061722 0.0067163515 -0.16140737 2.2939557e-38
0.55047768 0.0060734237 -0.16137284 2.2939557e-38
0.55046481 0.0054329825 -0.16135244 2.2937053e-38
0.55350018 0.053120635 -0.16219583 1.2052333e-38
0.55449867 0.052352585 -0.16229467 1.2144527e-38
0.55461287 0.051702254 -0.16229562 1.2144527e-38
0.55485338 0.051036622 -0.16231048 1.2605499e-38
0.55458856 0.050434802 -0.16226929 1.306611e-38
0.55432367 0.049832024 -0.16222799 1.2789528e-38
0.55431145 0.04919802 -0.16221458 1.878325e-38
0.55442566 0.048549231 -0.16221507 2.3486668e-38
0.55466616 0.047886457 -0.16222949 2.3489481e-38
0.55515945 0.047196146 -0.1622719 2.3216845e-38
0.55577916 0.046493962 -0.16232827 2.3495954e-38
0.55627257 0.045808315 -0.16237058 2.3494874e-38
0.55689234 0.045111321 -0.16242687 2.3495231e-38
0.5573858 0.04443033 -0.16246909 2.3497023e-38
0.55787927 0.043751523 -0.16251126 2.3496663e-38
0.55824637 0.043087658 -0.16253932 2.3498092e-38
0.55861354 0.04242545 -0.16256732 2.3500606e-38
0.5589807 0.041764889 -0.16259526 2.3500966e-38
0.55922145 0.04111794 -0.16260907 2.3501687e-38
0.55946225 0.040472101 -0.16262281 2.350385e-38
0.55970305 0.03982738 -0.16263647 2.350457e-38
0.55994385 0.039183769 -0.16265008 2.3505302e-38
0.56018466 0.038541265 -0.16266361 2.350675e-38
0.56042552 0.037899867 -0.16267706 2.3506389e-38
0.56053984 0.037269946 -0.16267633 2.3508184e-38
0.56065428 0.036640588 -0.16267553 2.3509305e-38
0.56089514 0.036001958 -0.16268876 2.3509668e-38
0.56113601 0.035364419 -0.16270193 2.3509692e-38
0.56137687 0.034727972 -0.16271503 2.3509695e-38
0.56149131 0.034101665 -0.1627139 2.3509695e-38
0.56160575 0.033475913 -0.16271271 2.3509701e-38
0.56172019 0.032850716 -0.16271143 2.3417865e-38
0.56170815 0.03223433 -0.16269588 2.3326028e-38
0.56182253 0.031609964 -0.16269444 2.3417862e-38
0.56181049 0.030993879 -0.16267872 2.3326025e-38
0.56179839 0.030377807 -0.16266291 2.3417862e-38
0.56178635 0.029761747 -0.16264701 2.3326023e-38
0.56177425 0.029145695 -0.16263101 2.3326023e-38
0.56176215 0.028529651 -0.1626149 2.2957946e-38
0.56175005 0.027913608 -0.1625987 2.3050473e-38
0.5617379 0.027297566 -0.16258241 2.286644e-38
0.5617258 0.026681522 -0.16256602 2.3050462e-38
0.56171364 0.026065474 -0.16254953 2.3233774e-38
0.56157494 0.025454771 -0.16251871 2.3417806e-38
0.56143624 0.024843529 -0.16248778 2.3141225e-38
0.56142408 0.024226919 -0.16247098 2.32331e-38
0.56115878 0.023619417 -0.16242556 2.3417491e-38
0.56102002 0.023006542 -0.1623943 2.3509331e-38
0.56075466 0.022397149 -0.16234864 2.3509691e-38
0.56061584 0.021782907 -0.16231714 2.332566e-38
0.56035042 0.021171615 -0.16227123 2.3417858e-38
0.560085 0.020559233 -0.1622252 2.3417858e-38
0.55981952 0.019945763 -0.16217904 2.3233464e-38
0.55955404 0.019331202 -0.16213275 2.32331e-38
0.5592885 0.018715544 -0.16208634 2.2956513e-38
0.55902296 0.018098788 -0.16203977 2.3046905e-38
