# .PCD v0.7 - Point Cloud Data file format
VERSION 0.7
FIELDS x y z rgb
SIZE 4 4 4 4
TYPE F F F F
COUNT 1 1 1 1
WIDTH 969
HEIGHT 1
VIEWPOINT 0 0 0 1 0 0 0
POINTS 969
DATA ascii
0.56323433 0.019613996 -0.19637842 9.9541545e-39
0.56346905 0.020411279 -0.19656254 9.1218785e-39
0.56353658 0.020635026 -0.19647492 1.9064475e-38
0.56379688 0.021413891 -0.19639055 1.8420192e-38
0.56373835 0.021192124 -0.1961235 1.9156311e-38
0.56400269 0.022144973 -0.19634932 1.860423e-38
0.5641759 0.022785373 -0.19632605 1.8788981e-38
0.56425601 0.023187045 -0.19700235 1.5109582e-38
0.56439054 0.023675194 -0.19644813 1.4645986e-38
0.56443328 0.023932431 -0.19668378 5.617053e-39
0.56454134 0.024453513 -0.19665278 1.0604266e-38
0.56470335 0.025371466 -0.19667706 2.6808745e-39
0.5648669 0.026443809 -0.19653273 4.7865693e-40
0.56492066 0.02687191 -0.19698261 1.984659e-41
0.56497103 0.027040355 -0.19606441 4.7919783e-39
0.56501842 0.027510459 -0.19666553 7.9276821e-39
0.56513923 0.028406564 -0.19659369 1.3907365e-38
0.56530184 0.029594803 -0.19667421 1.8237635e-38
0.56546992 0.03083273 -0.19694102 1.823906e-38
0.56542987 0.030519851 -0.19665423 3.9611597e-39
0.56555295 0.031371344 -0.196537 1.7963569e-38
0.56556952 0.031491026 -0.19653137 8.5647755e-39
0.56569886 0.032549847 -0.19672792 1.4001743e-38
0.56576192 0.032950345 -0.19633166 1.5655884e-38
0.56583244 0.033572849 -0.19645028 4.9832429e-39
0.56582183 0.033566181 -0.19663569 8.3724556e-39
0.56592876 0.034475241 -0.19659689 1.3722636e-38
0.56604773 0.035437979 -0.1966062 1.4836187e-38
0.56616127 0.036445513 -0.19659096 3.8794401e-39
0.56626928 0.037662279 -0.19660571 5.3476786e-39
0.56631738 0.038429789 -0.19642347 1.6308073e-38
0.56633824 0.039442118 -0.19656944 1.3720838e-38
0.56634337 0.040414732 -0.19657786 1.2430822e-38
0.5663268 0.041375063 -0.19652085 8.836682e-39
0.56627834 0.042575985 -0.19657798 1.5014469e-38
0.56622565 0.043540504 -0.19655016 9.6642819e-39
0.56615949 0.044546917 -0.19653942 1.6578508e-38
0.56607831 0.045538519 -0.19622308 9.1103682e-39
0.56609583 0.045385391 -0.19651754 8.8406435e-39
0.5659824 0.046603713 -0.19641802 1.3629325e-38
0.56602913 0.046171028 -0.19683655 1.0494358e-38
0.56589907 0.047476407 -0.19651163 1.9157099e-38
0.56579286 0.048448071 -0.19650072 1.3626462e-38
0.56568807 0.049420841 -0.19648984 1.8330992e-38
0.56558764 0.050395478 -0.19647896 8.4678785e-39
0.56549853 0.051272761 -0.19651899 1.6582476e-38
0.56539702 0.052368537 -0.19645357 1.270704e-38
0.56529254 0.053441949 -0.19648762 1.372154e-38
0.56519848 0.054355677 -0.19643189 1.5471441e-38
0.56510669 0.055247042 -0.19642201 1.0403632e-38
0.56498486 0.056370754 -0.19640683 5.5349958e-39
0.56501794 0.056121208 -0.19650479 1.0591998e-38
0.56484461 0.057444651 -0.19628286 4.4297188e-39
0.56488812 0.057103936 -0.19654891 9.948077e-39
0.56469697 0.058427662 -0.19637959 1.8422871e-41
0.56475371 0.058013849 -0.19688435 9.8634989e-39
0.56451035 0.059443831 -0.19636588 1.8062737e-41
0.56427824 0.060467318 -0.19635148 1.8062737e-41
0.56399256 0.061510097 -0.19633606 1.8422871e-41
0.56368226 0.062530749 -0.19632167 1.8420068e-41
0.56335026 0.063532613 -0.19662373 1.8420068e-41
0.56308353 0.064266875 -0.19661209 3.8611238e-40
0.56264675 0.065397754 -0.196593 5.4376953e-39
0.56216288 0.066595934 -0.19657211 1.9162112e-38
0.56179059 0.067459278 -0.19655757 2.0265183e-38
0.56113011 0.068984061 -0.19653285 2.0449549e-38
0.56143886 0.068252467 -0.19654462 2.0265183e-38
0.5607748 0.069929473 -0.19652133 2.0449193e-38
0.56053352 0.070683151 -0.19651268 2.0541389e-38
0.56027406 0.071594559 -0.19649392 2.1187116e-38
0.56006593 0.072597407 -0.19647682 2.1371859e-38
0.55992866 0.073317215 -0.19646688 2.1371859e-38
0.55974871 0.074407436 -0.19645359 2.1462998e-38
0.55959195 0.075430825 -0.19643681 2.0728342e-38
0.55946183 0.076310262 -0.19640544 1.9068917e-38
0.55928499 0.077253915 -0.19637281 4.6965611e-39
0.55900365 0.078319214 -0.19634603 3.3190427e-39
0.55851442 0.079550043 -0.19632909 2.6747523e-39
0.55720675 0.081289396 -0.1970427 2.5825594e-39
0.54782504 -0.0088205319 -0.19564003 1.8423084e-38
0.5316264 -0.0092863729 -0.19554289 1.8423444e-38
0.5325051 -0.0092161549 -0.19539514 1.8791868e-38
0.53345561 -0.0093189022 -0.19577122 1.8792228e-38
0.53457981 -0.0092694042 -0.19558436 1.906737e-38
0.53575063 -0.009304638 -0.19565584 1.9343597e-38
0.53656769 -0.0093123596 -0.1956501 1.9436129e-38
0.53742707 -0.0093018245 -0.19564186 1.9252096e-38
0.53848171 -0.009290657 -0.19573703 1.9252092e-38
0.53956145 -0.0091568651 -0.19557843 1.9436482e-38
0.54057878 -0.0092144031 -0.19565862 1.9620512e-38
0.54129696 -0.0092364978 -0.19566084 1.9620872e-38
0.54237926 -0.0093188873 -0.1956528 1.9528676e-38
0.54351753 -0.009421478 -0.19563487 1.9805266e-38
0.544586 -0.0095387073 -0.1959078 1.9897461e-38
0.54860437 -0.0084470306 -0.19553018 1.8330545e-38
0.54459876 -0.0094180135 -0.1953802 1.9989657e-38
0.54570043 -0.0093404017 -0.19541511 2.0081853e-38
0.54669958 -0.0091034314 -0.19523129 2.0265894e-38
0.54788226 -0.0087464293 -0.19539215 2.0357736e-38
0.54866046 -0.0084644221 -0.19580659 2.0265541e-38
0.54934639 -0.0080118263 -0.19543655 1.8053957e-38
0.54903787 -0.0082079424 -0.19553067 2.0449577e-38
0.54990226 -0.00761595 -0.19536199 2.0541773e-38
0.55018032 -0.0073837922 -0.19528346 1.8883708e-38
0.55069131 -0.0069688126 -0.19539835 1.8698958e-38
0.55119884 -0.0064683538 -0.19544826 1.8698952e-38
0.55192208 -0.0056774071 -0.19534305 1.777808e-38
0.55233788 -0.0052032936 -0.19553116 2.0174047e-38
0.55279779 -0.004710706 -0.19599323 1.9989657e-38
0.55269605 -0.0048097582 -0.19534579 1.483728e-38
0.55310625 -0.0042767883 -0.19539806 1.9805983e-38
0.55357802 -0.0037630694 -0.19551653 1.9621954e-38
0.55318081 -0.0042477981 -0.19534716 1.2255803e-38
0.55366814 -0.0036813305 -0.19535123 4.988303e-39
0.55400592 -0.0032415316 -0.19560838 1.9161348e-38
0.55455709 -0.0025683555 -0.19568995 1.9162073e-38
0.5543099 -0.0029166769 -0.19546346 4.7795488e-40
0.55461717 -0.0024934243 -0.19504637 3.8611518e-40
0.55497301 -0.0020017843 -0.19559008 1.8977681e-38
0.55506378 -0.0019063777 -0.19537611 1.8059935e-41
0.55570638 -0.00092683727 -0.19551934 1.8609623e-38
0.55545169 -0.0013368472 -0.19538188 1.7339667e-41
0.55586082 -0.00070642238 -0.19539593 1.6978132e-41
0.55614722 -0.00020170806 -0.19553459 1.8609993e-38
0.55643493 0.0003150439 -0.19545867 1.7689553e-38
0.55621582 -0.00011567034 -0.1954063 1.7336865e-41
0.55677724 0.00095803104 -0.19563335 1.0235523e-38
0.55667639 0.00073546043 -0.19552697 1.7691393e-41
0.55689669 0.0011746915 -0.19511166 1.0952549e-40
0.55711234 0.0016433961 -0.19543925 6.5520162e-39
0.5572499 0.0019522399 -0.19527091 2.013736e-40
0.55735105 0.0021356428 -0.19544317 1.3026569e-39
0.55765396 0.0028501628 -0.19545679 1.986761e-41
0.5577594 0.0030608405 -0.19513714 7.0889111e-39
0.55776191 0.0030836812 -0.19576916 8.9288496e-39
0.55800855 0.0037567632 -0.19563259 1.8791412e-41
0.55822325 0.0042923074 -0.19507959 1.843268e-41
0.55813199 0.0040179705 -0.19546086 1.5934568e-38
0.55840027 0.0047929543 -0.19558738 1.8792814e-41
0.55848128 0.0049481755 -0.19546637 1.759152e-38
0.55870205 0.0055837599 -0.19546939 1.7591161e-38
0.55876184 0.0057882918 -0.19542398 1.9508877e-41
0.55893052 0.0062133148 -0.19547258 1.8051436e-38
0.5591324 0.0067872587 -0.19526102 1.9508877e-41
0.55926889 0.0071529164 -0.19547547 1.676034e-38
0.55933678 0.0073958007 -0.19552745 1.9145941e-41
0.55957222 0.0080773449 -0.19552767 1.6717939e-39
0.55969316 0.0083927792 -0.19547746 1.8143609e-38
0.55974936 0.0085988976 -0.19536304 1.4895621e-39
0.55999744 0.00931866 -0.19547786 1.805285e-38
0.56012005 0.0096646268 -0.19541454 1.1234782e-38
0.56021148 0.0099544497 -0.1954758 1.6765419e-38
0.56040734 0.010518203 -0.19543031 1.7408604e-38
0.56072032 0.011470873 -0.19547671 4.7008743e-39
0.56075037 0.01160232 -0.19549704 1.8880469e-38
0.56101 0.012370536 -0.19547769 4.7919713e-39
0.56114173 0.012840305 -0.19538566 1.5377799e-38
0.56119555 0.012968311 -0.19547859 1.6208248e-38
0.56138676 0.013576796 -0.19547814 1.7775568e-38
0.5614534 0.013798183 -0.19548097 1.7682997e-38
0.56168181 0.014472401 -0.19547898 1.8236521e-38
0.56168318 0.014501681 -0.19548097 1.8697504e-38
0.56196994 0.015371052 -0.19547801 1.823724e-38
0.56197613 0.015400341 -0.19529031 1.9064835e-38
0.56222367 0.016173514 -0.19537389 1.2622777e-38
0.56232148 0.016532954 -0.19561921 1.1147999e-38
0.56261903 0.01747803 -0.19549128 3.5099107e-39
0.56287032 0.018297438 -0.19548705 1.5803213e-39
0.56299663 0.0187135 -0.19543602 4.3335603e-39
0.56314057 0.019190127 -0.19557351 3.8610537e-40
0.56326592 0.019575117 -0.19530702 8.9421816e-39
0.56354046 0.020490699 -0.19546737 4.5182767e-39
0.56352031 0.020433221 -0.19549131 1.934034e-38
0.56382871 0.021392375 -0.19546551 1.8603863e-38
0.56384623 0.021463646 -0.19534814 1.9248146e-38
0.56399244 0.021998961 -0.19546376 1.8511668e-38
0.5641712 0.022646574 -0.19542928 1.8328009e-38
0.56439751 0.02358401 -0.19545564 1.5474655e-38
0.5645715 0.02442885 -0.19541791 1.0511351e-38
0.56472409 0.025324179 -0.19549707 3.231163e-39
0.56490904 0.02650422 -0.19545381 1.6699806e-39
0.56503314 0.02736046 -0.19534136 6.260249e-39
0.56503969 0.027465401 -0.19574828 3.5059633e-39
0.56513369 0.028155087 -0.19559421 1.9526527e-38
0.56518817 0.028494358 -0.19546893 1.0036261e-38
0.56533355 0.029599095 -0.19554739 1.9158104e-38
0.56533617 0.029595917 -0.19542889 1.7685171e-38
0.56541896 0.030146971 -0.19545646 1.8974792e-38
0.56546676 0.030509029 -0.19542365 9.2050778e-39
0.56552821 0.031025728 -0.19579373 1.8055784e-38
0.56559157 0.031415503 -0.19539851 9.6660685e-39
0.5657509 0.032624524 -0.19542021 1.3909922e-38
0.56585944 0.033600185 -0.19554506 1.855818e-39
0.56588227 0.033703506 -0.19529864 5.8014499e-39
0.56597537 0.034505416 -0.19544467 1.3814827e-38
0.56611389 0.035667058 -0.19538297 1.3821337e-38
0.56619632 0.036526121 -0.19547431 2.8631232e-39
0.56628782 0.03752346 -0.19538705 6.2674685e-39
0.56633902 0.038497474 -0.19542541 1.6491736e-38
0.56636 0.039464958 -0.19540967 1.4457292e-38
0.56636024 0.040478785 -0.19536693 1.8237282e-38
0.56633186 0.041408118 -0.19536254 1.408852e-38
0.56628168 0.04260125 -0.19535483 1.6116806e-38
0.56623423 0.043501187 -0.19537191 1.2060996e-38
0.56616205 0.044474669 -0.19558784 1.6117906e-38
0.56608135 0.045493145 -0.19562906 8.0094563e-39
0.56599087 0.046509121 -0.19559136 1.095497e-38
0.56588799 0.047469798 -0.19557996 1.9249626e-38
0.56577396 0.048450936 -0.1955678 1.427181e-38
0.56564271 0.049668435 -0.19573618 1.8607882e-38
0.56557524 0.050328288 -0.19548674 1.4736035e-38
0.56547916 0.051352993 -0.19549969 1.7041262e-38
0.56538111 0.052464921 -0.19545439 1.1232277e-38
0.56525964 0.053738479 -0.19557567 1.7317153e-38
0.56517035 0.054637104 -0.19549248 8.9256378e-39
0.56509674 0.055330332 -0.19553369 1.1693293e-38
0.56497151 0.056476552 -0.19545612 7.0997726e-39
0.56485713 0.057373717 -0.19545314 1.1061009e-40
0.56470639 0.058358297 -0.19540715 5.3556436e-39
0.56446618 0.059649315 -0.19548286 3.7901438e-39
0.56429523 0.060378253 -0.19527733 2.3186193e-39
0.56397229 0.061533686 -0.19538885 1.8420068e-41
0.564022 0.061350152 -0.19541608 5.2634606e-39
0.5636645 0.062521152 -0.19537525 1.8414463e-41
0.5633238 0.063556723 -0.19567458 1.1061009e-40
0.56305319 0.064290375 -0.19566159 1.1193362e-39
0.56262815 0.06538792 -0.19564174 1.2252545e-38
0.56214929 0.066587478 -0.19561851 1.9805274e-38
0.56178677 0.06745366 -0.19560193 2.0266237e-38
0.56113529 0.069018818 -0.19557424 2.0358433e-38
0.56143075 0.06828291 -0.19558737 2.0266237e-38
0.56086743 0.069765471 -0.19556174 2.0265881e-38
0.56064016 0.070488378 -0.1955498 2.0634664e-38
0.56074959 0.070143878 -0.1950509 1.6414796e-38
0.56077373 0.070017315 -0.1954259 1.7337108e-38
0.56034809 0.071536936 -0.19553152 2.1187473e-38
0.56014991 0.072579876 -0.19551483 2.1372575e-38
0.55995709 0.073645025 -0.19549882 2.1280043e-38
0.55982459 0.074692674 -0.19548416 2.1464091e-38
0.55971837 0.07558319 -0.19536081 2.0269232e-38
0.5595656 0.076425597 -0.19555216 1.4277646e-38
0.55938298 0.077392958 -0.19551204 3.8696899e-39
0.55936921 0.077715129 -0.19506544 2.8591435e-39
0.55912995 0.078467056 -0.19536555 2.9506203e-39
0.5589034 0.079119451 -0.19533932 2.6747523e-39
0.55858344 0.079858184 -0.19531412 2.6747551e-39
0.54783899 -0.0086610448 -0.19473395 1.8792217e-38
0.53075927 -0.0088576991 -0.19426136 1.8516e-38
0.5315851 -0.0089769578 -0.1946376 1.8699672e-38
0.53587246 -0.0090829888 -0.19483925 1.9528682e-38
0.53677893 -0.009094025 -0.19482285 1.9620514e-38
0.53763318 -0.0090242857 -0.19454995 1.98971e-38
0.538405 -0.0090677682 -0.19482601 1.9528319e-38
0.53953338 -0.0089875553 -0.19485626 1.9804906e-38
0.54033715 -0.0089149456 -0.19459163 1.9897463e-38
0.54146057 -0.0090213353 -0.19485074 1.998966e-38
0.54254198 -0.0091224425 -0.19483769 2.0081856e-38
0.54850155 -0.0083398139 -0.19460481 1.8698593e-38
0.53243113 -0.0089150798 -0.19448833 1.9159929e-38
0.53335971 -0.0089583388 -0.19459179 1.9252116e-38
0.53444225 -0.0090047726 -0.19467741 1.94365e-38
0.53549927 -0.0089141373 -0.19430608 1.9528679e-38
0.53677052 -0.0089372583 -0.19429487 1.9897099e-38
0.53839755 -0.0089275688 -0.19429702 1.9712707e-38
0.53920907 -0.0088708429 -0.19431226 1.9989297e-38
0.54073644 -0.0088541796 -0.19432519 1.9897101e-38
0.54145479 -0.0088931415 -0.19432372 2.0081493e-38
0.54253882 -0.0089826332 -0.19431296 2.0081853e-38
0.54364377 -0.0091761425 -0.19455619 1.9989304e-38
0.54435188 -0.0092297923 -0.19456263 2.0081145e-38
0.54548037 -0.0091936132 -0.19458681 2.0265538e-38
0.54681462 -0.0088449707 -0.19417019 2.044993e-38
0.54767513 -0.0086675053 -0.19455865 2.0633617e-38
0.54926723 -0.0078883423 -0.1945111 1.8422008e-38
0.54799771 -0.0085008061 -0.1943353 2.0633617e-38
0.5486533 -0.0082018087 -0.1943657 2.0633973e-38
0.549528 -0.0077521987 -0.19454169 2.0634327e-38
0.55007547 -0.0073417872 -0.1944444 1.8329811e-38
0.5499301 -0.0073703309 -0.1939235 2.0819411e-38
0.55060947 -0.0068989042 -0.19439305 1.9251754e-38
0.55121404 -0.0063554081 -0.19453633 1.9251398e-38
0.55180615 -0.0057011032 -0.19440474 1.8514556e-38
0.55224633 -0.0052138935 -0.19445315 2.0542483e-38
0.55266804 -0.0047259349 -0.19435577 1.851674e-38
0.55318576 -0.0041162884 -0.19452216 1.9898906e-38
0.55315977 -0.0041954909 -0.19439931 1.6582471e-38
0.55365461 -0.0035871165 -0.1944097 1.2631108e-38
0.55403793 -0.0031062574 -0.19463439 1.9530132e-38
0.55433697 -0.002769507 -0.19440803 1.1215124e-39
0.55490774 -0.0020182442 -0.19449778 1.9162068e-38
0.55503458 -0.001867049 -0.19442357 1.1025416e-40
0.55532008 -0.0014802434 -0.19501142 1.888548e-38
0.55559999 -0.0010082808 -0.19443832 1.8702167e-38
0.55544126 -0.0012750876 -0.19443472 1.7338266e-41
0.55583549 -0.00067555538 -0.19444482 1.6978132e-41
0.55605727 -0.00030013622 -0.1947284 1.8609989e-38
0.55627608 7.4183336e-05 -0.19449095 1.8517777e-38
0.55621266 -6.5376786e-05 -0.19445452 1.76984e-41
0.55669457 0.00084037101 -0.19453359 1.7136731e-38
0.55654097 0.00051654468 -0.19446138 1.7338266e-41
0.55687684 0.0011556291 -0.19447842 1.8054329e-41
0.55711871 0.0016826732 -0.19429754 1.658394e-38
0.55735677 0.0021736806 -0.19450134 4.4362363e-39
0.55734116 0.0021136852 -0.19449458 2.9284195e-40
0.55765933 0.0028726666 -0.19469441 1.9869011e-41
0.55776924 0.0030779741 -0.19450791 4.2395598e-39
0.55800194 0.0037000559 -0.19445363 1.9508877e-41
0.55813318 0.0039942609 -0.19451578 1.0593409e-38
0.55840802 0.0047715669 -0.19440153 1.878861e-41
0.55849612 0.0049504843 -0.19452494 1.759152e-38
0.55872196 0.0055628708 -0.19453 1.7683714e-38
0.55884236 0.0059531988 -0.19460231 1.9508877e-41
0.55894375 0.0061777337 -0.19453472 1.8235803e-38
0.5591172 0.0066882698 -0.19433598 1.878861e-41
0.55928189 0.0071304515 -0.19453949 1.8235803e-38
0.55943453 0.0075962115 -0.19472913 1.9143138e-41
0.55950087 0.0077278814 -0.19420111 1.8783005e-41
0.55972177 0.00836566 -0.19454372 1.8235803e-38
0.55986106 0.008798101 -0.19446442 7.5560395e-40
0.56004709 0.0093238223 -0.1945439 1.805285e-38
0.56016153 0.0096569667 -0.19442388 5.8954084e-39
0.56025541 0.0099318465 -0.19454437 1.6949812e-38
0.56046581 0.01057995 -0.19453649 1.7223846e-38
0.56076282 0.011463207 -0.19454576 4.3331946e-39
0.56085968 0.011792467 -0.19450748 1.9431825e-38
0.56104815 0.01236389 -0.19454722 5.2525893e-39
0.5611487 0.012670723 -0.19426163 1.9063776e-38
0.56135088 0.013315833 -0.19451563 1.6575954e-38
0.56157088 0.014024807 -0.19469653 1.8881529e-38
0.56172216 0.014464913 -0.19454943 1.8236521e-38
0.56183225 0.014826583 -0.19444586 1.9156311e-38
0.56199878 0.01535595 -0.19455105 1.8236879e-38
0.56207186 0.015598572 -0.19448379 1.9524011e-38
0.5621841 0.015964797 -0.19454952 1.6950881e-38
0.56236941 0.016571375 -0.19452107 1.1239839e-38
0.56267196 0.017543731 -0.19451806 4.6133758e-39
0.56292689 0.018368697 -0.19454631 1.9130527e-41
0.56301183 0.018635251 -0.19452052 4.4268224e-39
0.56311822 0.018972976 -0.19454436 1.9489259e-41
0.56328011 0.019538073 -0.19454509 8.6648786e-39
0.56353629 0.020371802 -0.19452973 9.9487525e-39
0.56367081 0.02079973 -0.19446646 1.9339982e-38
0.5638417 0.02137571 -0.19453947 1.8603863e-38
0.56388324 0.021524021 -0.19446191 1.8972998e-38
0.56409764 0.022283586 -0.19453765 1.8788251e-38
0.56417543 0.022568254 -0.19449052 1.676433e-38
0.56441164 0.02358591 -0.19450955 1.3173406e-38
0.56460756 0.024573559 -0.19439079 8.2064704e-39
0.56475616 0.025394842 -0.19464412 7.3720112e-39
0.56479418 0.025609761 -0.19429532 1.9863406e-41
0.56494105 0.026536658 -0.19456935 1.2440177e-38
0.564955 0.026599979 -0.19408333 2.0394876e-39
0.56506813 0.027470831 -0.19472672 1.0957481e-38
0.56506932 0.027451623 -0.19451654 1.7408229e-38
0.56522596 0.028558224 -0.19454601 1.9157745e-38
0.56519824 0.028366299 -0.19451155 1.7407896e-38
0.56538415 0.029696709 -0.19438034 1.9434328e-38
0.56536174 0.029586926 -0.19450468 1.3903405e-38
0.5654878 0.030449819 -0.19457214 1.8790424e-38
0.5656274 0.031441588 -0.19448192 1.187514e-38
0.56575775 0.032455597 -0.19452363 1.0321513e-38
0.56581843 0.03293116 -0.19448553 1.6668924e-38
0.56584829 0.033294685 -0.19482231 2.0398435e-39
0.56588024 0.033441957 -0.19435744 5.4344765e-39
0.56600493 0.03451547 -0.19448662 1.280213e-38
0.56612235 0.035581831 -0.19450291 1.8148722e-38
0.56621808 0.036456127 -0.19450487 5.530649e-39
0.56631285 0.037650488 -0.19442841 9.0300682e-39
0.56636202 0.038586847 -0.19457106 1.7319327e-38
0.56639141 0.039537996 -0.194446 1.6670299e-38
0.56637609 0.040601783 -0.1944894 1.860713e-38
0.56634158 0.041500323 -0.19447698 1.5012967e-38
0.56628776 0.042679358 -0.19448346 1.55647e-38
0.56623691 0.043542232 -0.19444738 1.1785482e-38
0.56613296 0.044886783 -0.19437157 1.8514244e-38
0.56615913 0.044542044 -0.19478811 1.6393749e-38
0.56607854 0.045527674 -0.19436343 7.452307e-39
0.56608021 0.045492928 -0.19468375 1.298363e-38
0.5659852 0.046493553 -0.19466102 1.0862776e-38
0.56587791 0.047463398 -0.19464846 1.9434362e-38
0.56588799 0.047372598 -0.1944117 1.7774853e-38
0.5657531 0.048521426 -0.19468984 1.5378867e-38
0.56566226 0.049331091 -0.19454865 1.8329816e-38
0.5655573 0.050406463 -0.19460043 1.6393723e-38
0.56544709 0.051601786 -0.19453122 1.7407868e-38
0.5653789 0.052355118 -0.19454972 1.2244626e-38
0.56527179 0.053530186 -0.19455487 1.7592264e-38
0.56517065 0.054561745 -0.19458272 1.7595527e-38
0.56505477 0.055694409 -0.19453189 1.2069249e-38
0.56494099 0.056642041 -0.19452591 1.1025416e-40
0.56482321 0.05752854 -0.19440766 4.3432854e-39
0.56465203 0.058609724 -0.19459762 2.0412981e-39
0.56449968 0.059384052 -0.194342 2.5930257e-39
0.56425393 0.060469758 -0.19446149 1.1226012e-39
0.56396353 0.061493307 -0.19444527 1.8057132e-41
0.56394041 0.061585248 -0.19454791 5.447133e-39
0.56364501 0.062511489 -0.19442879 1.0271518e-39
0.56355816 0.062790364 -0.19466592 5.9995865e-39
0.56327301 0.063584261 -0.19440851 2.3135606e-39
0.56300086 0.064318024 -0.19439375 1.5019149e-38
0.56257963 0.065436967 -0.19437075 1.9989705e-38
0.56212652 0.066587724 -0.19434653 2.0173323e-38
0.56178957 0.067422807 -0.19432849 2.0357711e-38
0.56116748 0.068986312 -0.19461584 2.0541742e-38
0.56144893 0.068245724 -0.19462988 2.026659e-38
0.56093735 0.069670156 -0.19460295 2.109455e-38
0.56072485 0.070361629 -0.19459005 2.1186746e-38
0.56044877 0.071415231 -0.19457091 2.1279292e-38
0.56021696 0.072557136 -0.19455227 2.1740267e-38
0.56007612 0.073618554 -0.19453633 2.137224e-38
0.55992699 0.074606113 -0.19451846 2.1465538e-38
0.55980074 0.075602509 -0.19449997 1.8427876e-38
0.55967915 0.076527372 -0.19447686 6.7208741e-39
0.55956519 0.077184945 -0.19445933 3.4112327e-39
0.55943358 0.077760249 -0.19443747 2.8591435e-39
0.55929548 0.078327842 -0.19441094 2.7669479e-39
0.5590027 0.079254061 -0.19437532 2.6747523e-39
0.54706961 -0.0086690523 -0.19373985 1.879364e-38
0.54769987 -0.0085137915 -0.1938417 1.8608536e-38
0.53001183 -0.0086862342 -0.19372411 1.8792231e-38
0.54835457 -0.0081382571 -0.19340202 1.8515994e-38
0.5484336 -0.0082463222 -0.19400707 1.8698588e-38
0.52981275 -0.0084796418 -0.19321297 1.8976978e-38
0.53050625 -0.0085643874 -0.19349337 1.8884784e-38
0.53133458 -0.0085567012 -0.19349934 1.9160643e-38
0.53238428 -0.00856937 -0.19351231 1.9252479e-38
0.53347957 -0.0085928375 -0.19352023 1.9528703e-38
0.53430122 -0.0086193709 -0.19351551 1.9620898e-38
0.53516716 -0.0086460058 -0.1935067 1.9804902e-38
0.53650683 -0.0086783329 -0.19349104 1.98049e-38
0.53779489 -0.0086998986 -0.19348176 1.9989649e-38
0.53856313 -0.0086737303 -0.19349492 1.9896734e-38
0.53933102 -0.0086292224 -0.19351412 2.0172604e-38
0.54043162 -0.0086342972 -0.19352593 2.0172604e-38
0.54157531 -0.0086851576 -0.19351913 2.0356635e-38
0.5426178 -0.0087750927 -0.19351234 2.0357712e-38
0.54376298 -0.0088891396 -0.19349061 2.035771e-38
0.5444715 -0.0089390576 -0.19349295 2.0357355e-38
0.54553103 -0.0089112371 -0.1935358 2.0542111e-38
0.54660636 -0.0086875977 -0.19334252 2.0817981e-38
0.54917216 -0.0077704452 -0.1935896 1.8330887e-38
0.54718703 -0.0085533448 -0.19341791 2.0633963e-38
0.54761869 -0.0083352905 -0.19312344 2.100238e-38
0.54865623 -0.0079860259 -0.19338539 2.1002734e-38
0.54942447 -0.0076709464 -0.19381194 2.0910547e-38
0.55003101 -0.0072042416 -0.19352271 1.8146857e-38
0.54974526 -0.007361528 -0.19333948 2.1095625e-38
0.55070519 -0.0066678622 -0.19350937 1.8700016e-38
0.55117285 -0.0062503959 -0.19345781 1.9252825e-38
0.55181056 -0.0056044124 -0.19346036 1.8147209e-38
0.55225343 -0.0051030992 -0.19359326 2.0727236e-38
0.55259955 -0.0047195479 -0.19334836 1.8240143e-38
0.55307209 -0.0041559208 -0.19359945 2.0083659e-38
0.55312651 -0.0041276873 -0.19345438 1.7042341e-38
0.55358171 -0.0035414824 -0.19346067 1.6215859e-38
0.55401272 -0.003014409 -0.19353119 1.9622693e-38
0.55405205 -0.003017985 -0.19345519 1.0507718e-38
0.55454677 -0.0024125576 -0.19346829 3.8758262e-39
0.55479288 -0.0020698188 -0.19362685 1.9622329e-38
0.55499589 -0.0018152234 -0.19347855 2.9463842e-40
0.55522037 -0.0014592087 -0.19329689 1.9437209e-38
0.55558741 -0.00095431227 -0.19369514 1.9069147e-38
0.55539 -0.0012650298 -0.19347957 2.9463842e-40
0.55580741 -0.00064126897 -0.19349316 1.8413062e-41
0.55611348 -0.00012393008 -0.1935636 1.8976949e-38
0.55641466 0.00037595342 -0.19348021 1.9160978e-38
0.55636418 0.00025953315 -0.19350827 1.7692794e-41
0.55678558 0.0010457702 -0.19357432 1.8147946e-38
0.55687517 0.0011944522 -0.1935298 1.7332661e-41
0.55716646 0.0018159444 -0.19330974 1.7595515e-38
0.55734181 0.0021244879 -0.19354925 2.0064492e-40
0.55758518 0.0027208694 -0.19357529 6.1868588e-39
0.5577445 0.0030368664 -0.19324419 2.4947204e-39
0.55775476 0.0030598727 -0.19387724 3.1375563e-39
0.55806535 0.0038696586 -0.1934564 2.0209807e-40
0.55812627 0.0039727967 -0.1935712 7.0014252e-39
0.55850285 0.004976979 -0.19361377 1.878861e-41
0.55857384 0.0051244595 -0.19368802 1.795922e-38
0.55874306 0.0055521349 -0.19327475 1.8051415e-38
0.55877203 0.0057003736 -0.19351977 1.878861e-41
0.55895698 0.0061392514 -0.19359301 1.8235444e-38
0.55917013 0.0067646322 -0.19358902 1.878861e-41
0.55933851 0.0072000236 -0.19337387 1.9148744e-41
0.55931473 0.0071064378 -0.19360188 1.8235444e-38
0.55959511 0.0078978641 -0.19338778 1.8785807e-41
0.55976099 0.0083495863 -0.19360936 1.8235803e-38
0.5598076 0.0085398192 -0.19366798 5.7050224e-40
0.56007886 0.0092888698 -0.19361243 1.805285e-38
0.56017107 0.0095724892 -0.19351229 3.1414884e-39
0.56030881 0.0099124471 -0.19330347 1.6857626e-38
0.56046176 0.010399929 -0.19362797 1.5842376e-38
0.56068075 0.011113752 -0.19385006 1.888154e-38
0.56081069 0.011453616 -0.19361554 3.9662142e-39
0.56089413 0.011690621 -0.19330193 1.9156316e-38
0.56109661 0.012354412 -0.19361722 4.9767325e-39
0.56119764 0.012693753 -0.19349968 1.9064486e-38
0.56126845 0.012949723 -0.19392931 1.6668503e-38
0.5614388 0.013437017 -0.19355828 1.7406785e-38
0.56157255 0.013806473 -0.19315164 1.9248505e-38
0.56176019 0.014452411 -0.19362095 1.8235803e-38
0.56179309 0.014595017 -0.19366929 1.9432176e-38
0.56204581 0.015357501 -0.19362074 1.8236162e-38
0.56211936 0.015625911 -0.19351332 1.9616205e-38
0.56222951 0.015955096 -0.19362125 1.7685544e-38
0.56241328 0.016560413 -0.19354987 9.9494938e-39
0.56266767 0.017400373 -0.19362758 5.8097372e-39
0.56282866 0.017907325 -0.19334073 6.264977e-39
0.56296092 0.018353503 -0.19362071 6.6053146e-40
0.56301242 0.018524822 -0.19358756 5.253311e-39
0.56320333 0.019166488 -0.19372088 8.4563178e-40
0.56333262 0.019577935 -0.19340698 8.8445755e-39
0.56359702 0.02046789 -0.19361547 7.7385993e-39
0.56362516 0.020587593 -0.19369444 1.9064834e-38
0.56385607 0.021372071 -0.19361345 1.8511668e-38
0.56391805 0.021601228 -0.19350754 1.8973719e-38
0.56411523 0.022272909 -0.19361179 1.8604221e-38
0.56417751 0.022562636 -0.19339004 1.5845692e-38
0.56438386 0.023434326 -0.19361787 1.6485913e-38
0.56456321 0.024317635 -0.19354597 1.059488e-38
0.56467855 0.024906464 -0.19341671 1.9138934e-41
0.56475264 0.025306648 -0.19360206 1.2982903e-38
0.56480825 0.025658563 -0.19340652 2.0578068e-41
0.56494951 0.02652549 -0.19359577 1.6577407e-38
0.56494665 0.026494866 -0.19343138 3.1414968e-39
0.56509268 0.027438579 -0.19328366 9.9411925e-39
0.56509912 0.027513765 -0.19373049 1.6761773e-38
0.56523222 0.028438564 -0.19361378 1.8145782e-38
0.56537372 0.029460236 -0.19350551 1.4271816e-38
0.56548423 0.030233761 -0.19338055 1.9709835e-38
0.56552815 0.03057098 -0.19367369 1.8513483e-38
0.56563598 0.03135984 -0.19354305 1.4916122e-38
0.56579131 0.032578409 -0.19356647 1.6394823e-38
0.56591851 0.033536263 -0.19324914 1.8423451e-38
0.56590694 0.033521701 -0.19362563 1.3905945e-38
0.56600457 0.034414027 -0.19357347 1.5291016e-38
0.56615365 0.035638377 -0.19355504 1.1611183e-38
0.56624091 0.036455885 -0.19350901 7.5600262e-39
0.56632245 0.037454713 -0.1935232 6.3578579e-39
0.56638533 0.038460981 -0.19350335 1.6675761e-38
0.56641412 0.039373323 -0.19347329 1.7684813e-38
0.56640655 0.040399741 -0.19353078 1.5565424e-38
0.56638432 0.041312456 -0.19348228 1.6948336e-38
0.56632203 0.042542748 -0.19348264 1.6671758e-38
0.56626403 0.043532275 -0.19341981 1.1877644e-38
0.56617868 0.04452781 -0.19350141 1.7961769e-38
0.56609803 0.045509249 -0.19312438 8.0047549e-39
0.56606656 0.045709874 -0.19382931 1.3260203e-38
0.56598747 0.046503242 -0.19342005 1.1139717e-38
0.56600404 0.046374779 -0.19344467 1.9343587e-38
0.56586385 0.047548674 -0.1935727 1.888191e-38
0.5657717 0.048352428 -0.19339418 1.5471054e-38
0.56563973 0.049469344 -0.19345364 1.7684827e-38
0.56553537 0.050477609 -0.19344079 1.0492564e-38
0.56547248 0.051239356 -0.19329052 1.3535691e-38
0.56537449 0.052344687 -0.1933343 1.5933485e-38
0.56525576 0.053615827 -0.19339836 1.7592976e-38
0.56514674 0.054735582 -0.19372413 1.4645297e-38
0.56507289 0.055442303 -0.19349591 1.0593774e-38
0.56494504 0.056536093 -0.19344485 1.3815891e-38
0.56493598 0.056609005 -0.19358864 1.1061009e-40
0.56479704 0.057598427 -0.19357423 1.8775998e-41
0.56465513 0.058426291 -0.1934586 7.5661513e-39
0.56445384 0.059458096 -0.19352582 3.4202557e-39
0.56420499 0.060518779 -0.19364801 1.5828563e-39
0.56391865 0.061510477 -0.19349805 1.76984e-41
0.56406766 0.060936917 -0.19334698 4.7117316e-39
0.56359416 0.062562242 -0.19347833 2.4950526e-39
0.56375557 0.062042579 -0.19343108 6.5477128e-39
0.56323326 0.06360428 -0.19345841 7.0957957e-39
0.56295681 0.064337239 -0.19344254 1.9254677e-38
0.56252724 0.06551066 -0.19341554 2.0448865e-38
0.56210864 0.066616438 -0.19339153 2.0540676e-38
0.5617854 0.067417383 -0.19337267 2.0540676e-38
0.56134272 0.068566516 -0.19366631 2.081654e-38
0.56097245 0.069676235 -0.1936435 2.1737393e-38
0.56077415 0.070371874 -0.19363017 2.1921786e-38
0.56051576 0.07143005 -0.19361012 2.2014692e-38
0.56029367 0.072501361 -0.19359033 2.2107246e-38
0.56010908 0.073727727 -0.19346167 2.1465528e-38
0.56015152 0.073244348 -0.19389884 2.1924311e-38
0.55999643 0.074584208 -0.19355488 2.1282236e-38
0.55986261 0.075578712 -0.19353704 1.474151e-38
0.5597344 0.076514073 -0.19319707 4.8805992e-39
0.55971473 0.076487876 -0.19383691 5.8925637e-39
0.55952984 0.077467233 -0.19381422 3.0431718e-39
0.55958182 0.07743182 -0.1931767 2.6751138e-39
0.55935109 0.078345902 -0.19347088 2.5829168e-39
0.55911076 0.079175629 -0.19344422 2.4910799e-39
0.54702538 -0.0085445987 -0.19318371 1.9070227e-38
0.54761398 -0.0083061066 -0.19297177 1.8885839e-38
0.54826725 -0.0080316495 -0.19281131 1.8976972e-38
0.52951884 -0.0082721794 -0.19270012 1.8976607e-38
0.53025502 -0.0082563842 -0.19271612 1.9160998e-38
0.53117365 -0.00814436 -0.19245981 1.9529773e-38
0.5324586 -0.0081722839 -0.1924582 1.962125e-38
0.533553 -0.008210673 -0.19246079 1.9805633e-38
0.53437424 -0.0082451208 -0.19245538 1.9805633e-38
0.53524005 -0.0082799653 -0.19244757 1.9989649e-38
0.53614902 -0.0083122971 -0.19243783 2.017404e-38
0.53746152 -0.0083541451 -0.1924268 2.0173317e-38
0.53868145 -0.0083168894 -0.19244675 2.0356988e-38
0.5394488 -0.0082864659 -0.19246359 2.0449184e-38
0.54052627 -0.0083302343 -0.19246627 2.0541379e-38
0.5416494 -0.0083845211 -0.19246216 2.0633217e-38
0.54232955 -0.0084344056 -0.19246018 2.0632864e-38
0.54344523 -0.008522938 -0.19244567 2.0817616e-38
0.54454786 -0.0087016923 -0.19270223 2.0910162e-38
0.54562068 -0.0086658979 -0.19274132 2.090981e-38
0.54901475 -0.0076414896 -0.19267879 1.8792584e-38
0.52941525 -0.0080511356 -0.19217913 1.897696e-38
0.53015101 -0.0080398284 -0.1921944 1.9161351e-38
0.54454213 -0.0085276356 -0.19218445 2.1186393e-38
0.54565752 -0.0084992573 -0.19221899 2.1001285e-38
0.54661638 -0.008454592 -0.19256656 2.1277519e-38
0.54761016 -0.0080642067 -0.19214199 2.1554809e-38
0.54866254 -0.0077235634 -0.19239883 2.1370774e-38
0.54991096 -0.0071154917 -0.19259411 1.8239413e-38
0.5490514 -0.0074700601 -0.19212298 2.1738841e-38
0.54983479 -0.0071419613 -0.19255181 2.1463689e-38
0.5505681 -0.0065836986 -0.19244108 1.9805637e-38
0.55097502 -0.0062642507 -0.19252028 1.7962826e-38
0.55105126 -0.006104257 -0.19208735 2.1647018e-38
0.55173284 -0.0055247569 -0.19252175 1.8884054e-38
0.55218488 -0.0050851274 -0.19274777 2.0911625e-38
0.55259424 -0.0046040788 -0.1924371 1.9161352e-38
0.55310762 -0.0040012305 -0.19258253 2.0635745e-38
0.55302948 -0.0041099349 -0.1924998 1.7410731e-38
0.55355638 -0.0034661442 -0.19265668 1.8608904e-38
0.55407542 -0.0028138561 -0.19255927 2.0082579e-38
0.55403048 -0.002920392 -0.19252262 1.6765725e-38
0.5544045 -0.0024211942 -0.19241805 1.8149045e-38
0.55474949 -0.0020110407 -0.19269386 1.9990384e-38
0.55491412 -0.0018190134 -0.19252236 5.7215549e-39
0.55522972 -0.0013407306 -0.19239961 1.998966e-38
0.55560738 -0.00082263036 -0.19270258 1.9436485e-38
0.55533236 -0.0012454161 -0.19252817 2.955686e-39
0.55577433 -0.00060306134 -0.19254667 8.4709333e-40
0.55609882 -3.9416413e-05 -0.19245706 1.9252811e-38
0.5563246 0.00028313359 -0.19255988 1.1024716e-40
0.55666947 0.00090532313 -0.1925561 1.8976231e-38
0.55684412 0.0011900367 -0.19257851 1.7329858e-41
0.55707598 0.0016685275 -0.19257759 1.8424166e-38
0.55733341 0.0022100576 -0.19250123 1.8331606e-38
0.55731446 0.0021193749 -0.19259927 1.0916535e-40
0.55770999 0.0030297963 -0.19255096 9.3146299e-39
0.55772823 0.0030158979 -0.19261229 1.3019408e-39
0.55810046 0.0039326083 -0.19234343 1.851879e-39
0.55812699 0.0039565642 -0.19231029 3.3233587e-39
0.55839449 0.0046774657 -0.19263099 1.878861e-41
0.55857861 0.0050807931 -0.19222201 1.7038366e-38
0.55874842 0.0055263466 -0.19264814 1.7775555e-38
0.55888194 0.0059001311 -0.19255355 1.878861e-41
0.5589717 0.0060898648 -0.19233568 1.8326204e-38
0.55921465 0.0067833713 -0.1926236 1.8428476e-41
0.55928206 0.0069168443 -0.19209656 1.878861e-41
0.55934322 0.0070545957 -0.19234987 1.8418757e-38
0.55958712 0.0077951984 -0.19246425 1.8787209e-41
0.55968511 0.0079768142 -0.19204645 1.8419474e-38
0.55983585 0.0084168501 -0.19246744 1.8419474e-38
0.55994922 0.0088018794 -0.19260715 3.8611518e-40
0.56013185 0.0092506921 -0.19236986 1.8145044e-38
0.56028175 0.0097339973 -0.19251454 2.0394834e-39
0.56034762 0.0098744808 -0.19237271 1.6859068e-38
0.56056207 0.010501713 -0.19239232 1.2158904e-38
0.56072229 0.010933005 -0.19202776 1.3352379e-38
0.56086904 0.011426329 -0.19237654 3.0482235e-39
0.56086504 0.011470515 -0.19253771 1.7961779e-38
0.56115633 0.012333695 -0.19237886 3.7850739e-39
0.56121373 0.012567464 -0.19248638 1.9340699e-38
0.56144327 0.013264174 -0.1924438 1.3908085e-38
0.5616594 0.013998735 -0.19265576 1.9432176e-38
0.5618245 0.014436745 -0.19238329 1.832728e-38
0.56183499 0.014510928 -0.19247507 1.9340699e-38
0.56209224 0.015330734 -0.19238557 1.8511668e-38
0.56217462 0.015650438 -0.19254424 1.9341058e-38
0.56227237 0.015930334 -0.19238581 1.8236881e-38
0.5624631 0.016542859 -0.19236018 1.7777382e-38
0.56273752 0.01743119 -0.19238621 1.3354185e-38
0.56277162 0.017594937 -0.19251828 1.1604679e-38
0.56301206 0.018338306 -0.19238509 1.0313205e-38
0.56310737 0.01872202 -0.19247238 5.9879683e-39
0.56323916 0.019144408 -0.19248639 1.0495081e-38
0.56335598 0.019550959 -0.19238597 1.5473942e-38
0.56360143 0.020397311 -0.19233638 1.8327644e-38
0.56367451 0.020684524 -0.19265202 1.9156669e-38
0.56387907 0.021363083 -0.19237983 1.8696057e-38
0.56394571 0.02165423 -0.19254166 1.9157032e-38
0.56410998 0.022263924 -0.19237776 1.8788969e-38
0.56421477 0.022703243 -0.19236259 1.5014109e-38
0.56440461 0.023511732 -0.19242756 1.5012246e-38
0.56458819 0.024382604 -0.1923715 9.3862334e-39
0.56464624 0.024695946 -0.1924357 5.6978197e-40
0.56475329 0.025294721 -0.19236778 1.307473e-38
0.56480628 0.025627345 -0.19248638 6.641342e-40
0.56495291 0.026515726 -0.19236213 1.3537171e-38
0.56495625 0.026541719 -0.19254462 8.3861407e-39
0.56509781 0.027430978 -0.19235827 7.6388479e-39
0.56512421 0.027655344 -0.1923807 1.8881522e-38
0.56517917 0.028041068 -0.19204651 1.8699686e-38
0.56524199 0.028450103 -0.19245537 1.8238347e-38
0.56539202 0.029519936 -0.19236492 1.3903067e-38
0.56553113 0.030486826 -0.19257262 1.9709836e-38
0.56553054 0.030480707 -0.19234309 1.6209018e-38
0.5656597 0.031391174 -0.19238946 1.7498635e-38
0.5658195 0.032557722 -0.19233313 9.7579068e-39
0.56585228 0.032915436 -0.19286425 1.7870654e-38
0.56593263 0.033533022 -0.19232439 7.6428416e-39
0.56591058 0.033361286 -0.19242516 1.7593353e-38
0.56600994 0.034143049 -0.19201204 4.0609517e-39
0.56605494 0.034568995 -0.19246268 8.5720062e-39
0.56618142 0.03561151 -0.19240934 5.7193646e-39
0.56627488 0.036547869 -0.19264288 1.0505924e-38
0.56635523 0.037534736 -0.19255021 8.4776077e-39
0.56641757 0.038464036 -0.19253609 1.7412245e-38
0.56644112 0.039444953 -0.19257002 1.4002098e-38
0.56643349 0.040504392 -0.19245778 1.1331353e-38
0.56640583 0.041409418 -0.19259684 9.7629305e-39
0.56635082 0.042646952 -0.19251813 1.4738591e-38
0.56627297 0.043755092 -0.19256191 1.3077961e-38
0.5662213 0.044445638 -0.19237684 1.6027466e-38
0.56611305 0.045519661 -0.19250455 1.906882e-38
0.56611496 0.045487899 -0.19251591 1.6209327e-38
0.56600791 0.046479579 -0.19249062 1.814724e-38
0.56595713 0.046830785 -0.19297369 1.7776267e-38
0.56588817 0.04752627 -0.19237836 1.5473222e-38
0.56576377 0.048514362 -0.19253108 1.4458354e-38
0.5656628 0.049401067 -0.19244584 1.8516347e-38
0.56556785 0.050307959 -0.19247189 1.8424174e-38
0.56544244 0.051590774 -0.19239783 1.5288825e-38
0.56533831 0.052761864 -0.19246559 1.3998829e-38
0.56525511 0.053590361 -0.19240849 1.7778819e-38
0.56516337 0.054495048 -0.19257914 1.4920782e-38
0.5650478 0.055582043 -0.19263124 1.2527701e-38
0.56486493 0.056956258 -0.19263342 1.7042371e-38
0.56492174 0.056574039 -0.1926517 2.0027778e-40
0.56476849 0.057612065 -0.19258013 4.1596172e-39
0.56481791 0.05721901 -0.19232909 5.6833863e-40
0.56457102 0.058686476 -0.19250496 2.8717846e-39
0.56439739 0.05954282 -0.19272727 2.225332e-39
0.56418818 0.060359359 -0.19254731 1.398458e-39
0.56386048 0.061524127 -0.19255067 2.9427268e-40
0.56392765 0.061279852 -0.19251238 4.9875954e-39
0.56352448 0.062607519 -0.19252725 1.1610778e-38
0.56353325 0.062549129 -0.19232807 8.6616626e-39
0.56316018 0.063686162 -0.19250432 1.8519252e-38
0.56287903 0.064456232 -0.19248605 2.0081139e-38
0.5624783 0.065566406 -0.19246083 2.0632518e-38
0.56206435 0.066647746 -0.19211848 2.1092417e-38
0.56207347 0.066627719 -0.19275475 2.1000219e-38
0.56178367 0.067413218 -0.1924175 2.1276084e-38
0.56138259 0.068511225 -0.19239208 2.1460473e-38
0.56102031 0.069586776 -0.19236779 2.2197647e-38
0.56081939 0.070281737 -0.19235332 2.2381678e-38
0.5605734 0.071380414 -0.19232975 2.275153e-38
0.5602777 0.072702527 -0.19254379 1.9353035e-38
0.56010032 0.073957697 -0.19259797 2.1098587e-38
0.56020808 0.073229648 -0.19261213 2.2475705e-38
0.56001961 0.074622072 -0.1925876 2.146737e-38
0.55987978 0.075578667 -0.19257264 8.8424736e-39
0.55973464 0.076535851 -0.19255772 4.7894966e-39
0.55955851 0.077518836 -0.19254033 2.6751138e-39
0.55933654 0.078412592 -0.19252546 2.49144e-39
0.55912 0.079184316 -0.19251308 2.49144e-39
0.54699242 -0.0083877221 -0.19261277 1.9162423e-38
0.54720259 -0.0081359958 -0.19190244 1.9069871e-38
0.54750437 -0.0081205033 -0.19219112 1.8978032e-38
0.54805446 -0.0078662382 -0.19193172 1.8977321e-38
0.52895403 -0.0078171473 -0.19164969 1.9068455e-38
0.53217334 -0.0078529734 -0.19167115 1.9804916e-38
0.53658897 -0.0080548069 -0.19164658 2.0541741e-38
0.53790057 -0.0080872169 -0.19164376 2.0542098e-38
0.53871453 -0.0080348775 -0.19166969 2.0449184e-38
0.53943574 -0.00801876 -0.19168691 2.0633575e-38
0.54024363 -0.0080443006 -0.19168477 2.0817966e-38
0.5414089 -0.008115584 -0.19167317 2.0817613e-38
0.54886717 -0.0074679251 -0.19178829 1.8976965e-38
0.52885014 -0.0075895991 -0.19112943 1.9437237e-38
0.52930778 -0.0076994612 -0.191401 1.9436859e-38
0.53013754 -0.0077053816 -0.19141009 1.9713446e-38
0.53106052 -0.0077179307 -0.19141524 1.9804914e-38
0.53265345 -0.007735563 -0.19132268 1.9989304e-38
0.53362691 -0.0078147948 -0.19140767 2.0173328e-38
0.53440112 -0.0078561688 -0.19140296 2.0172969e-38
0.53526706 -0.0078975856 -0.19139627 2.0357349e-38
0.5365802 -0.0078579402 -0.19112639 2.09098e-38
0.53789246 -0.0078957351 -0.19112523 2.0816884e-38
0.53870565 -0.0078508416 -0.19115132 2.0816887e-38
0.53951794 -0.0078178653 -0.19117236 2.1001278e-38
0.54032457 -0.007857034 -0.19116718 2.1185314e-38
0.54140162 -0.007927008 -0.19115955 2.1185314e-38
0.5424453 -0.0080929296 -0.19141077 2.0725417e-38
0.54353583 -0.0081584621 -0.19140735 2.0909809e-38
0.54461193 -0.0082499022 -0.19140287 2.1462618e-38
0.54567087 -0.0082284678 -0.19143906 2.1186034e-38
0.54669112 -0.008110554 -0.19151624 2.1462265e-38
0.54763836 -0.0078100711 -0.19136237 2.1830316e-38
0.54961985 -0.0069509861 -0.19136836 1.8792215e-38
0.54980552 -0.0070098881 -0.1919881 1.842308e-38
0.54766852 -0.0076176142 -0.19084771 2.2106543e-38
0.54881477 -0.0073335976 -0.19129135 2.1922156e-38
0.54992044 -0.0068115164 -0.1915095 2.2014723e-38
0.55053943 -0.0063894195 -0.19160418 1.8239044e-38
0.55090958 -0.006031645 -0.19124308 2.2015088e-38
0.55167568 -0.0054001012 -0.19157191 1.8791494e-38
0.55195612 -0.0050751832 -0.19132721 2.1831415e-38
0.55248123 -0.0045726052 -0.19154964 1.8975884e-38
0.55302608 -0.0039624707 -0.19173807 2.1372234e-38
0.5529744 -0.0040177852 -0.19156741 1.7593676e-38
0.5534088 -0.0034870633 -0.1915518 1.8791496e-38
0.55383873 -0.0029861035 -0.19173822 2.0450995e-38
0.55392838 -0.0029028342 -0.19156857 1.7501488e-38
0.55438322 -0.0023397924 -0.19152297 1.8146868e-38
0.55475193 -0.0018537549 -0.19171695 2.0174048e-38
0.55485982 -0.0017524635 -0.19158213 1.4375257e-38
0.55520976 -0.0012130928 -0.19149484 1.9897461e-38
0.55543989 -0.00084892393 -0.19125627 1.9989304e-38
0.55528063 -0.0011861114 -0.19158579 1.0779267e-38
0.55571252 -0.00057673058 -0.19159916 3.144766e-39
0.55590308 -0.00024024385 -0.19151069 1.962052e-38
0.55628335 0.00030463061 -0.19161014 4.7902407e-40
0.55632156 0.00039315995 -0.19177094 1.9160622e-38
0.55653811 0.0007865011 -0.19154824 1.9068429e-38
0.5568009 0.0011906362 -0.19162431 2.0207985e-40
0.55705947 0.0017386898 -0.1914575 1.8792585e-38
0.5572741 0.002118788 -0.19164485 1.0952549e-40
0.55757445 0.0027761979 -0.19159395 1.8147967e-38
0.55771661 0.00303001 -0.19166458 8.4276752e-40
0.55801898 0.0037764062 -0.19160753 1.1891067e-38
0.55810201 0.0039256355 -0.19136073 2.5883356e-39
0.55826271 0.0043207691 -0.19106524 1.4927339e-38
0.5585326 0.004984281 -0.19160649 9.385771e-40
0.55861986 0.0051571182 -0.19138177 1.4366895e-38
0.55889827 0.0059021525 -0.191394 1.878861e-41
0.55898094 0.0060477685 -0.19139245 1.8326204e-38
0.55910897 0.0064409655 -0.1916142 1.878861e-41
0.55939507 0.0071674613 -0.19134131 1.8428476e-41
0.55935854 0.0070147035 -0.19141002 1.8419115e-38
0.55959833 0.0077158082 -0.19156218 1.9148744e-41
0.55970109 0.0079515269 -0.19142127 1.8511668e-38
0.55993676 0.0085892277 -0.1914288 1.8603863e-38
0.55997288 0.0087173423 -0.19139142 1.9136132e-41
0.56017256 0.0092255846 -0.19143488 1.8236879e-38
0.56031567 0.0096885553 -0.19150725 2.0280292e-40
0.56039059 0.0098649263 -0.19143958 1.6399172e-38
0.56056082 0.010390277 -0.19160527 8.3854177e-39
0.56068236 0.010721705 -0.1913487 7.8304516e-39
0.56091583 0.011409324 -0.19144715 2.5897705e-39
0.56099862 0.011701105 -0.1914546 1.71342e-38
0.56120074 0.012325504 -0.1914492 2.3160745e-39
0.5612995 0.012673022 -0.19155203 1.9341058e-38
0.56152707 0.013368296 -0.19152507 1.1974876e-38
0.56186807 0.014415103 -0.19145574 1.8420556e-38
0.56190902 0.014621085 -0.19156033 1.9616564e-38
0.56214052 0.015320159 -0.19145693 1.8420192e-38
0.56219703 0.015525207 -0.19132452 1.9616564e-38
0.56232464 0.015929356 -0.19145721 1.8236879e-38
0.56246644 0.016419243 -0.19149677 1.8697495e-38
0.56263244 0.016968276 -0.19149065 1.8147667e-38
0.56277692 0.017407831 -0.19145976 1.8145044e-38
0.56282544 0.017617678 -0.19144762 8.4693148e-39
0.56304365 0.01832309 -0.19145899 1.8421631e-38
0.56310105 0.018576156 -0.19152464 5.0682093e-39
0.56321329 0.018934296 -0.1914579 1.8696776e-38
0.56338584 0.019556681 -0.19154023 1.5842733e-38
0.56364053 0.0204443 -0.19145596 1.8787892e-38
0.56368685 0.020621676 -0.19144239 1.9341418e-38
0.56388569 0.021349711 -0.19145435 1.8606015e-38
0.563981 0.021750428 -0.19129485 1.9616205e-38
0.56410968 0.022258123 -0.19145206 1.8606378e-38
0.5641585 0.022492941 -0.19159181 1.94322e-38
0.56440926 0.023529956 -0.19144967 1.2525159e-38
0.564578 0.02437488 -0.19144496 8.0980254e-39
0.5646435 0.024755327 -0.19127205 2.7705674e-39
0.56474668 0.025287203 -0.19144125 1.2983973e-38
0.56478304 0.025515184 -0.19155045 2.406831e-39
0.56495142 0.026509497 -0.1914373 1.3169477e-38
0.56496692 0.026617242 -0.19137099 1.7225278e-38
0.56509304 0.027425213 -0.19143249 7.4544594e-39
0.56517184 0.027989313 -0.1916122 1.9616564e-38
0.56518292 0.028035838 -0.19142924 1.8516021e-38
0.56523407 0.028429752 -0.1912629 1.8881898e-38
0.56540191 0.029577985 -0.19139446 1.4273999e-38
0.5655182 0.030393578 -0.19150716 1.45502e-38
0.56566691 0.031413276 -0.19141497 1.722313e-38
0.56583112 0.032612529 -0.1914054 6.5372185e-39
0.56580371 0.03240202 -0.19146672 1.8514942e-38
0.565943 0.033530064 -0.19139954 4.5157992e-39
0.56594336 0.033523876 -0.19157989 1.3628604e-38
0.56601888 0.034141079 -0.19139554 1.855832e-39
0.56610215 0.034836303 -0.19159222 9.4975302e-39
0.56619817 0.035638351 -0.19151887 4.8042551e-39
0.56629974 0.036560334 -0.19164705 5.3541751e-39
0.56638575 0.037520826 -0.19164903 5.5360496e-39
0.56644285 0.03845505 -0.19163373 9.2152021e-39
0.5664686 0.039414082 -0.19164848 7.8358746e-39
0.56646848 0.040445268 -0.19156647 6.2721699e-39
0.56644863 0.041373499 -0.19159795 4.4282671e-39
0.56640095 0.042513195 -0.19156364 7.6518603e-39
0.56633711 0.043468162 -0.19154894 7.9255325e-39
0.56623977 0.044585537 -0.19154117 9.397043e-39
0.56615472 0.045502987 -0.19126675 9.0272152e-39
0.56613213 0.045492046 -0.19188601 1.7503349e-38
0.56603545 0.046466708 -0.19156113 1.2068924e-38
0.56592113 0.047435928 -0.19154562 5.8046981e-39
0.56579405 0.048486687 -0.19150646 9.8565737e-39
0.56567109 0.049442064 -0.19157705 1.2526978e-38
0.56556499 0.050402049 -0.1915499 1.2433716e-38
0.56545252 0.051532999 -0.19143781 1.0131368e-38
0.565355 0.0525584 -0.19144291 1.0867113e-38
0.5652253 0.053843904 -0.19156261 1.9344708e-38
0.56525266 0.053590368 -0.19144881 1.2158226e-38
0.56517833 0.054316889 -0.19107673 1.9162462e-38
0.5651437 0.05459721 -0.1915745 1.3538965e-38
0.56508374 0.055128049 -0.19136955 1.7134158e-38
0.56503099 0.055569943 -0.19141637 1.1977083e-38
0.56490624 0.056474432 -0.19140913 6.2746754e-39
0.56472772 0.057599243 -0.1914223 3.5153394e-39
0.56456691 0.058419615 -0.19126208 5.2648899e-39
0.5643822 0.059294865 -0.19139142 1.8583544e-39
0.56401944 0.060793892 -0.19162184 2.5890517e-39
0.56416154 0.060226105 -0.19142027 2.1338567e-39
0.56380248 0.061537474 -0.19160305 2.0358779e-39
0.56378061 0.061621193 -0.1916759 5.5389587e-39
0.56345683 0.062652893 -0.1915763 1.8242301e-38
0.56360942 0.062078007 -0.19117466 6.0885227e-39
0.56309348 0.063768789 -0.19154993 1.9437915e-38
0.56283605 0.064511783 -0.19153312 2.0081843e-38
0.56245208 0.065629199 -0.19150642 2.0447771e-38
0.56207389 0.066673957 -0.19148134 2.0999866e-38
0.56182033 0.067345157 -0.19146562 2.1092417e-38
0.56143087 0.068466671 -0.19143751 2.1553033e-38
0.56107473 0.069525078 -0.19141251 2.238132e-38
0.56075728 0.070600279 -0.19138804 2.2750813e-38
0.56048995 0.07169354 -0.19136335 2.2935569e-38
0.56033415 0.072467998 -0.19166431 2.2935568e-38
0.56013811 0.073684916 -0.19146958 1.9537095e-38
0.5601961 0.073199622 -0.19172589 2.0455768e-38
0.56000733 0.074517958 -0.19157878 1.9905879e-38
0.55983323 0.075616084 -0.19160327 6.0784138e-39
0.55969131 0.076628141 -0.19158669 3.9622569e-39
0.55951464 0.07747034 -0.19168492 2.6751152e-39
0.55930161 0.078280419 -0.19146928 2.4914428e-39
0.55912703 0.078985743 -0.19189748 2.5836356e-39
0.54752672 -0.0078153806 -0.19122459 1.9253897e-38
0.54792643 -0.007652204 -0.19107358 1.9253897e-38
0.5486964 -0.0072744754 -0.19091012 1.9069507e-38
0.52883619 -0.0072520571 -0.19034831 1.9805292e-38
0.52920008 -0.0073603773 -0.19061543 2.0449929e-38
0.53012443 -0.007369454 -0.19062561 2.0173342e-38
0.5310427 -0.0072751152 -0.19037259 2.0265168e-38
0.53253847 -0.0073377793 -0.19037084 2.0264809e-38
0.53365499 -0.0073996871 -0.19036402 2.0541027e-38
0.53442931 -0.0074389135 -0.19036105 2.0448832e-38
0.53524894 -0.0074859606 -0.19035506 2.0816165e-38
0.53654426 -0.0075500146 -0.19034959 2.1092749e-38
0.53788012 -0.0075945351 -0.19035107 2.1368976e-38
0.53869271 -0.007559604 -0.19037686 2.1277501e-38
0.53950471 -0.0075325835 -0.19039953 2.1184946e-38
0.54031223 -0.0075632376 -0.19039968 2.1277862e-38
0.54145545 -0.007641661 -0.19038735 2.1461175e-38
0.54255736 -0.0076958239 -0.19038495 2.1461176e-38
0.54362655 -0.0077721812 -0.19037592 2.1645569e-38
0.5446685 -0.0078262221 -0.1903788 2.1738124e-38
0.54573029 -0.0078352112 -0.19040681 2.1830319e-38
0.54675305 -0.0078307372 -0.19073197 2.2015074e-38
0.5495159 -0.0068331654 -0.19077235 1.8884764e-38
0.52919167 -0.0071365791 -0.19008939 2.054212e-38
0.53011578 -0.007142921 -0.19010402 2.0265534e-38
0.5467484 -0.0076341913 -0.19021979 2.2106541e-38
